ply
format ascii 1.0
element vertex 734
property float x
property float y
property float z
property float nx
property float ny
property float nz
property uchar diffuse_red
property uchar diffuse_green
property uchar diffuse_blue
end_header
3.98527 -6.2163 1.96053 -0.44466 0.696248 -0.563485 133 137 133
3.98264 -6.19225 1.97993 -0.471328 0.526469 -0.707588 127 131 127
4.00977 -6.1898 1.95157 -0.610498 0.559998 -0.560085 148 153 152
4.01379 -6.19189 1.96746 -0.63087 0.328485 -0.702922 158 163 162
4.0334 -6.15534 1.95111 -0.929391 0.351746 -0.111832 174 181 183
4.0345 -6.15417 1.95049 -0.928003 0.352998 -0.119179 174 181 183
4.04293 -6.02799 1.90822 -0.945347 0.323469 -0.0410814 177 186 187
4.04506 -6.0252 1.90695 -0.966618 0.240786 -0.0875916 174 183 184
4.05084 -6.02881 1.90936 -0.418333 0.268676 -0.867647 175 184 185
4.05799 -5.97576 1.90648 -0.943456 0.330152 -0.029832 205 215 217
4.07346 -5.95576 1.87204 -0.794562 0.478537 -0.373728 196 205 206
4.09102 -5.90663 1.86908 -0.866293 0.375034 -0.329978 211 221 224
4.09585 -5.8478 1.86402 -0.912917 0.403705 -0.0600477 208 218 222
4.11069 -5.83504 1.82758 -0.970866 0.233193 -0.0551369 174 186 189
4.12282 -5.77445 1.82374 -0.857417 0.493791 -0.144936 210 222 225
4.13628 -5.70619 1.80941 -0.847973 0.122496 -0.515691 176 189 192
4.15364 -5.70721 1.79121 -0.947096 0.208879 -0.243678 208 222 225
4.14793 -5.63612 1.78828 -0.93933 0.234834 -0.250025 221 234 238
4.14422 -5.63376 1.78343 -0.929006 0.247979 -0.274689 220 233 236
4.1626 -5.60658 1.74706 -0.915487 0.243399 -0.320374 178 191 194
4.17415 -5.56238 1.74693 -0.916023 0.243784 -0.318546 193 204 208
4.20241 -5.49518 1.72784 -0.975187 0.183607 -0.12369 174 187 191
4.18287 -5.50906 1.74334 -0.93125 0.244501 -0.270172 179 191 195
4.20236 -5.48535 1.72297 -0.995048 0.0671566 0.0732793 174 188 193
4.21736 -5.41042 1.68372 -0.876584 0.327042 -0.35305 182 195 197
4.20244 -5.41643 1.7121 -0.647707 0.245128 -0.721379 221 234 237
4.21004 -5.41048 1.70785 -0.877281 0.420198 -0.231973 202 215 217
4.23892 -5.35029 1.67288 -0.943747 0.187635 -0.272277 181 194 195
4.24359 -5.28514 1.66367 -0.785833 0.229972 -0.57409 184 195 196
4.25256 -5.25943 1.63377 -0.872585 0.423641 -0.243155 188 199 201
4.27009 -5.22729 1.63385 -0.841708 0.444684 -0.30624 226 235 237
4.28538 -5.19117 1.63328 -0.828411 0.396281 -0.395848 195 205 207
4.28514 -5.18907 1.6334 -0.840389 0.39677 -0.369215 196 206 208
4.30499 -5.17881 1.60322 -0.829192 0.39063 -0.39981 186 195 198
4.32071 -5.13952 1.59786 -0.791262 0.377052 -0.481389 184 193 196
4.3448 -5.04953 1.55675 -0.469991 0.280336 -0.836971 221 230 231
4.3448 -5.04953 1.55675 -0.469991 0.280336 -0.836971 221 230 231
4.3448 -5.04953 1.55675 -0.469991 0.280336 -0.836971 221 230 231
4.35752 -5.03323 1.57829 -0.774423 0.374584 -0.509859 233 241 242
4.37988 -5.0267 1.55095 -0.779193 0.397733 -0.484424 189 197 197
4.39661 -4.99695 1.55126 -0.728013 0.479421 -0.490054 181 190 191
4.3969 -4.99681 1.55118 -0.732645 0.474248 -0.488182 181 190 191
4.40368 -5.00233 1.54833 -0.734076 0.476146 -0.484166 191 200 201
4.41702 -4.97406 1.55175 -0.748467 0.428298 -0.506319 175 185 187
4.41686 -4.97443 1.55183 -0.748979 0.426764 -0.506855 175 185 187
4.42206 -4.96434 1.54715 -0.73603 0.406337 -0.541434 174 184 186
4.42219 -4.97095 1.54813 -0.711463 0.470981 -0.521534 175 185 187
4.43264 -4.93638 1.55 -0.736216 0.342813 -0.583494 175 187 188
4.46371 -4.92702 1.5232 -0.672903 0.330807 -0.66164 197 207 208
4.45897 -4.93918 1.52232 -0.676072 0.335952 -0.655792 198 209 210
4.47736 -4.87607 1.52134 -0.741866 0.463152 -0.484898 237 246 246
4.49875 -4.85594 1.52124 -0.61456 0.69995 -0.363849 184 194 194
4.51638 -4.85347 1.49632 -0.599439 0.588246 -0.542807 181 192 192
4.51356 -4.85483 1.49683 -0.602465 0.571282 -0.557381 177 188 188
4.54269 -4.82854 1.49618 -0.575394 0.716532 -0.394341 238 247 248
4.53776 -4.8339 1.49628 -0.613428 0.691056 -0.382293 237 246 247
4.5758 -4.79891 1.49411 -0.748666 0.356406 -0.558994 223 232 232
4.61777 -4.76055 1.46772 -0.640121 0.373174 -0.671555 244 251 250
4.60882 -4.75396 1.48423 -0.727198 0.315974 -0.609379 236 244 243
0.431694 -5.31291 1.45839 -0.516018 0.289971 -0.806004 145 146 139
0.463819 -5.25838 1.4557 -0.456722 0.535634 -0.710283 148 147 138
0.659757 -5.29698 1.46314 -0.0332991 0.866291 -0.498429 158 157 150
0.674968 -5.31819 1.47842 -0.0226222 0.903349 -0.428309 161 161 154
0.741888 -5.34835 1.48333 -0.398983 0.89873 -0.181926 177 177 175
0.732801 -5.33367 1.48365 0.228597 0.929529 -0.289341 173 173 170
0.721693 -5.34496 1.49867 -0.588122 0.790577 -0.170587 170 170 166
0.77027 -5.32977 1.49516 -0.315565 0.910247 -0.268083 188 188 187
0.807236 -5.3252 1.49209 -0.0372357 0.968448 -0.24642 194 194 195
0.831741 -5.33303 1.47938 0.0512227 0.993964 0.0970166 196 197 198
0.859858 -5.33658 1.49177 0.0642908 0.979663 0.190071 189 190 191
0.938928 -5.34632 1.4957 0.833751 0.465139 -0.297499 194 197 199
0.953461 -5.31561 1.50344 0.13245 0.77412 -0.619028 199 201 203
1.02768 -5.35579 1.51705 -0.292786 0.839261 0.458168 213 216 221
1.0775 -5.33278 1.51727 0.344659 0.937707 -0.0437712 214 218 223
1.09867 -5.33596 1.5033 0.287454 0.941426 -0.176316 205 209 212
1.12484 -5.35954 1.52471 0.273171 0.944829 -0.180767 201 203 206
1.14735 -5.37272 1.51345 0.208212 0.935227 -0.286353 189 190 189
1.17031 -5.37542 1.52819 0.459621 0.884068 -0.0846865 181 181 180
1.22982 -5.39308 1.55158 0.478656 0.847436 -0.229655 179 180 177
1.25172 -5.4117 1.54008 0.496459 0.845149 -0.198118 176 176 173
1.27408 -5.41595 1.55664 0.55691 0.820134 -0.131266 163 163 158
1.27452 -5.41423 1.56376 0.543154 0.809204 -0.223992 161 161 156
1.29929 -5.42997 1.55578 0.495094 0.862666 -0.103385 150 149 143
1.29719 -5.43093 1.55301 0.581472 0.780377 -0.230006 152 151 144
1.32176 -5.44961 1.55311 0.000360876 0.995755 -0.0920404 143 142 133
1.4682 -5.66071 1.6505 0.518381 0.833558 -0.190951 131 131 122
1.51913 -5.82849 1.72399 0.798038 0.591897 -0.11311 64 64 54
1.61746 -5.94869 1.77429 0.200273 0.279732 -0.938957 62 60 54
1.65392 -5.98254 1.76952 -0.0130124 0.552133 -0.833655 68 66 59
1.68893 -5.96953 1.78162 0.480807 0.283079 -0.829874 78 77 68
1.7327 -5.97497 1.78462 0.238985 0.450976 -0.859946 92 91 81
1.77301 -5.98998 1.78387 0.363916 0.420388 -0.831167 62 61 51
1.87109 -5.95655 1.80394 0.216935 0.292448 -0.93135 83 84 75
1.95526 -5.97676 1.81201 0.351571 0.32666 -0.87732 93 93 86
2.03284 -6.00359 1.81743 0.284109 0.378014 -0.881128 102 102 93
2.14138 -6.01582 1.82428 -0.266517 0.474973 -0.838671 115 116 109
2.17263 -6.03558 1.82196 0.0350965 0.477192 -0.878098 116 117 111
2.16877 -6.01408 1.81864 0.292058 0.370241 -0.88183 122 122 117
2.22256 -6.04263 1.82467 0.124294 0.582744 -0.803094 102 104 102
2.26187 -6.01155 1.83608 0.251233 0.373078 -0.893138 118 121 121
2.28198 -6.03808 1.8324 0.116407 0.505914 -0.854693 137 139 138
2.34957 -6.0008 1.84736 0.128359 0.548864 -0.825998 150 152 149
2.38018 -6.01955 1.84082 0.275162 0.664496 -0.694789 125 128 126
2.41583 -6.02258 1.84768 -0.0193092 0.649791 -0.759868 151 155 153
2.44948 -6.00941 1.86005 0.0493225 0.470383 -0.881083 126 130 130
2.48198 -6.03501 1.84991 0.115308 0.490864 -0.863572 142 144 142
2.52882 -6.04284 1.85385 0.0788633 0.499094 -0.862952 130 132 130
2.60396 -6.03594 1.86236 0.141842 0.427286 -0.892921 130 132 129
2.66804 -6.04903 1.86969 0.282052 0.443729 -0.850618 127 129 126
2.71222 -6.0327 1.8793 0.202903 0.416355 -0.886273 130 132 128
2.73933 -6.06232 1.86545 0.0427122 0.819348 -0.571703 138 140 136
2.79703 -6.07913 1.89176 -0.106824 0.616151 -0.780351 163 166 162
2.85587 -6.08118 1.88926 0.139066 0.765521 -0.628202 100 105 106
2.82732 -6.05648 1.89862 0.199339 0.536702 -0.819887 127 131 130
3.05443 -6.07986 1.91084 0.085117 0.706402 -0.702674 128 130 125
3.17807 -6.10114 1.93489 0.234438 0.627827 -0.742207 142 146 143
3.21603 -6.12011 1.92502 0.129879 0.743534 -0.655964 146 149 144
3.24494 -6.11151 1.94037 0.116945 0.70467 -0.699831 156 158 154
3.37901 -6.13501 1.94141 -0.01601 0.594396 -0.804013 140 142 137
3.40908 -6.13227 1.93824 -0.0208131 0.654611 -0.755679 157 160 155
3.50717 -6.13191 1.95499 0.164465 0.587825 -0.792094 132 135 132
3.61112 -6.16164 1.95961 0.196143 0.772384 -0.604111 121 124 120
3.58073 -6.14232 1.9692 0.00979158 0.758227 -0.651918 149 153 149
3.63835 -6.13848 1.97458 0.139428 0.551458 -0.822469 145 146 143
3.67472 -6.15604 1.9671 0.0453682 0.604661 -0.79519 118 120 115
3.71291 -6.13761 1.98248 0.0950308 0.490934 -0.865998 126 130 125
3.75865 -6.14399 1.98838 -0.000960984 0.457454 -0.889233 141 145 141
3.74006 -6.15932 1.97906 0.368861 0.599111 -0.710639 129 133 129
3.80156 -6.17019 1.9849 0.151122 0.425032 -0.892474 137 141 137
3.85395 -6.14266 1.98753 0.0535609 0.486281 -0.872159 125 130 125
3.86371 -6.14622 1.98889 0.000697915 0.369209 -0.929346 127 132 127
3.8967 -6.18212 1.98397 0.236942 0.894443 -0.37925 108 112 108
3.925 -6.19295 2.00323 0.263622 0.905054 -0.333736 129 134 131
3.94714 -6.16511 1.99923 0.0971467 0.39947 -0.911584 128 132 129
3.9837 -6.17406 1.98614 -0.362545 0.695504 -0.620351 120 125 122
3.9813 -6.1522 2.00241 -0.262405 0.519624 -0.813102 104 110 108
4.00881 -6.16169 1.97967 -0.622584 0.53712 -0.569115 150 156 155
4.02524 -6.06668 1.95813 -0.95126 0.197989 -0.236441 201 212 216
4.0307 -6.09107 1.95896 -0.848262 0.145906 -0.509081 201 211 216
4.03835 -5.98817 1.94523 -0.932726 0.258545 -0.251349 189 200 203
4.0714 -5.92398 1.90498 -0.863234 0.375805 -0.337042 196 207 209
4.08342 -5.86624 1.90211 -0.91091 0.400881 -0.0976559 180 191 194
4.10607 -5.78021 1.85933 -0.911421 0.392859 -0.122368 173 183 187
4.12391 -5.73265 1.8537 -0.956829 0.197129 -0.213585 187 199 201
4.13104 -5.66055 1.82342 -0.944525 0.254678 -0.207391 179 191 194
4.15548 -5.57809 1.78275 -0.92757 0.246614 -0.280705 179 192 196
4.16752 -5.53459 1.78254 -0.912124 0.260517 -0.316482 217 229 232
4.20085 -5.4293 1.71855 -0.9332 0.258849 -0.249268 224 236 239
4.19415 -5.47178 1.75699 -0.865584 -0.033595 -0.499635 173 187 192
4.18461 -5.44624 1.75498 -0.948577 0.240302 -0.206051 188 201 203
4.21747 -5.37042 1.70605 -0.800353 0.594589 -0.0768031 208 219 222
4.2281 -5.32136 1.70234 -0.807798 0.303436 -0.50536 237 247 248
4.2484 -5.22439 1.66273 -0.811073 0.392701 -0.433528 217 227 228
4.26512 -5.20112 1.66311 -0.81743 0.38556 -0.427963 240 249 250
4.26527 -5.19809 1.6635 -0.807554 0.410081 -0.423899 241 249 250
4.29995 -5.15881 1.62727 -0.851119 0.334666 -0.404469 212 221 222
4.30079 -5.09995 1.63186 -0.697265 0.233693 -0.67765 243 251 251
4.32503 -5.08995 1.6039 -0.778861 0.329567 -0.53363 197 207 208
4.3351 -5.03914 1.60203 -0.811781 0.378899 -0.44435 216 224 224
4.33311 -5.0375 1.60523 -0.790621 0.42446 -0.441308 215 224 224
4.37678 -5.0128 1.57835 -0.781658 0.46592 -0.414643 191 199 199
4.37717 -5.01646 1.57863 -0.775038 0.534286 -0.337423 191 199 199
4.37523 -5.00736 1.5789 -0.746642 0.557721 -0.362592 193 202 202
4.37567 -5.00621 1.57894 -0.669887 0.67449 -0.310344 193 202 202
4.39545 -4.98206 1.57821 -0.730446 0.468151 -0.497276 208 218 218
4.39527 -4.98212 1.57812 -0.728524 0.468959 -0.49933 208 218 218
4.41907 -4.93525 1.56621 -0.772551 0.313648 -0.552079 217 229 229
4.43344 -4.89735 1.5658 -0.73287 0.340519 -0.589023 192 203 204
4.45824 -4.89315 1.54806 -0.733874 0.337238 -0.58966 203 213 214
4.48067 -4.85233 1.54389 -0.550156 0.668292 -0.500714 225 233 233
4.50511 -4.83758 1.5438 -0.585418 0.77521 -0.23735 173 182 183
4.5288 -4.81812 1.54339 -0.706145 0.697464 -0.12208 185 194 195
4.51964 -4.83484 1.52085 -0.663952 0.623884 -0.412233 180 189 191
4.52247 -4.83014 1.51963 -0.697426 0.593758 -0.401308 185 194 196
4.52139 -4.83357 1.51863 -0.672725 0.608135 -0.421441 186 196 197
4.55528 -4.80497 1.51725 -0.646988 0.538534 -0.539804 174 184 185
4.54322 -4.81037 1.51978 -0.671539 0.564534 -0.479935 176 186 187
4.542 -4.81352 1.51869 -0.596407 0.718379 -0.358092 181 190 191
4.57315 -4.78094 1.51805 -0.718148 0.409432 -0.562698 164 173 175
4.57853 -4.76385 1.52075 -0.699016 0.402379 -0.591158 165 175 176
4.6225 -4.71277 1.4903 -0.480399 0.815213 -0.323488 229 236 236
4.61126 -4.71477 1.50488 -0.779257 0.414681 -0.469892 240 248 247
4.64345 -4.69476 1.48997 -0.343956 0.862406 -0.371417 168 176 177
4.66336 -4.69055 1.47525 0.278736 0.937517 -0.20825 218 225 226
0.437663 -5.2683 1.4708 -0.0715144 0.993153 -0.0923704 147 147 137
0.492689 -5.23531 1.45525 -0.457242 0.533496 -0.711556 149 149 139
0.512759 -5.24984 1.48263 0.742315 0.65854 0.123667 149 148 139
0.674304 -5.30828 1.50408 -0.1017 0.97658 -0.189599 161 161 153
0.732426 -5.3349 1.51316 -0.095278 0.911276 -0.400623 172 172 169
0.742867 -5.3392 1.51175 -0.462612 0.860833 -0.21203 177 177 174
0.769696 -5.32376 1.5225 -0.414638 0.84438 -0.33926 187 188 187
0.804747 -5.30251 1.50674 -0.166276 0.945211 -0.280943 190 191 191
0.83239 -5.32929 1.53211 -0.631966 0.532049 -0.56351 185 187 186
0.85733 -5.32653 1.5186 -0.101954 0.9413 -0.321806 187 188 189
0.880485 -5.3318 1.53406 0.527961 0.831052 -0.174958 194 196 197
0.959478 -5.34726 1.52229 0.639002 0.74844 -0.177524 201 202 205
0.99283 -5.35075 1.5391 0.387476 0.883674 0.262645 204 207 210
1.05513 -5.32995 1.53157 0.624662 0.764577 0.158808 213 217 222
1.07844 -5.34064 1.54904 0.306901 0.944214 0.119466 213 217 221
1.10232 -5.34624 1.53606 0.256292 0.965349 -0.0491502 211 214 218
1.12428 -5.36017 1.55214 -0.0531039 0.997457 -0.0475321 205 208 212
1.14748 -5.36315 1.53936 0.277562 0.94055 -0.195768 191 192 192
1.18807 -5.36576 1.54162 0.721599 0.690348 -0.0520952 182 182 180
1.20147 -5.37157 1.56674 0.520842 0.850516 -0.0731137 180 180 180
1.23012 -5.38301 1.57945 0.43457 0.865664 -0.248545 173 173 171
1.25182 -5.40362 1.56847 0.475418 0.861159 -0.179953 168 169 165
1.28957 -5.42119 1.59019 0.0588847 0.977587 -0.20213 151 151 145
1.29963 -5.43191 1.58683 0.607873 0.775648 -0.169883 148 147 140
1.31469 -5.427 1.57628 -0.0775817 0.978106 -0.193108 144 143 135
1.35069 -5.42245 1.57476 0.822175 0.549095 -0.150077 139 138 128
1.51099 -5.80743 1.75262 0.755304 0.645876 -0.111181 58 57 49
1.53287 -5.84217 1.75521 0.810024 0.57707 -0.104166 46 46 38
1.58727 -5.88519 1.78874 0.22937 0.357575 -0.905279 81 80 70
1.61731 -5.89704 1.79218 0.29424 0.262173 -0.919069 76 75 68
1.67085 -5.89556 1.7998 0.319042 0.222446 -0.921265 88 87 77
1.65175 -5.93053 1.78439 0.279821 0.252615 -0.926221 85 85 77
1.70837 -5.92999 1.79232 0.181615 0.283059 -0.94175 60 60 51
1.753 -5.91977 1.80119 0.252983 0.318389 -0.91358 72 72 65
1.81635 -5.94429 1.79908 -0.050819 0.431972 -0.900454 93 93 85
1.81635 -5.94429 1.79908 -0.050819 0.431972 -0.900454 93 93 84
1.81635 -5.94429 1.79908 -0.050819 0.431972 -0.900454 93 92 84
1.84169 -5.92442 1.81247 0.30701 0.354748 -0.883119 70 70 62
1.92819 -5.93114 1.81595 0.358955 0.358172 -0.861896 103 103 94
2.00478 -5.96376 1.8251 0.305278 0.361854 -0.880833 85 86 78
2.08265 -5.98971 1.83078 0.277694 0.365263 -0.888521 114 115 110
2.06069 -5.92467 1.83533 0.301487 0.362362 -0.88193 88 91 91
2.10857 -5.97618 1.83277 -0.266 0.476091 -0.838201 113 115 112
2.1347 -5.94346 1.84339 -0.110745 0.430618 -0.895714 102 105 106
2.31486 -5.97928 1.85419 0.241088 0.336867 -0.910163 108 111 111
2.29323 -5.96872 1.8518 0.00462697 0.347878 -0.937529 132 135 135
2.35057 -5.95205 1.86522 0.285177 0.321972 -0.902778 101 106 107
2.3852 -5.97394 1.85854 0.185981 0.498948 -0.846441 156 158 157
2.41659 -5.98066 1.86785 -0.138628 0.276227 -0.951042 145 149 150
2.42752 -5.95475 1.87038 0.0802782 0.365098 -0.927501 114 120 122
2.47189 -5.96759 1.87769 0.151285 0.392713 -0.907133 115 121 123
2.49441 -5.99229 1.8573 0.0166567 0.482826 -0.875558 126 129 128
2.51528 -5.97335 1.8803 0.0175767 0.400664 -0.916056 158 161 160
2.5528 -6.01161 1.8682 0.0280241 0.478497 -0.877642 160 162 160
2.57431 -5.97707 1.88691 0.137596 0.395946 -0.907906 145 147 145
2.63729 -6.01237 1.87885 0.245701 0.352814 -0.902858 99 103 101
2.68456 -6.004 1.89114 0.277506 0.385874 -0.879825 125 128 127
2.68506 -6.00122 1.89263 0.260695 0.356203 -0.897306 120 123 124
2.66551 -5.98957 1.89751 0.172578 0.374032 -0.911217 99 104 104
2.73162 -5.99794 1.90226 0.213845 0.294238 -0.931501 109 112 112
2.75872 -6.03371 1.89025 0.014435 0.419944 -0.907435 125 126 123
2.73492 -5.99454 1.90631 0.154059 0.280339 -0.947458 100 104 105
2.78195 -5.9919 1.90623 -0.214389 0.297832 -0.930233 127 130 129
2.79335 -6.02123 1.90222 -0.0129089 0.445328 -0.895275 136 139 136
2.8645 -6.02672 1.91397 0.165411 0.379406 -0.910324 155 158 156
2.95312 -6.05167 1.90781 0.193251 0.683834 -0.70358 162 164 161
2.9215 -6.02534 1.91351 0.190193 0.490289 -0.850555 111 115 112
3.02112 -6.05772 1.91594 0.128829 0.879232 -0.458644 147 149 145
2.99325 -6.04166 1.92686 0.424781 0.467189 -0.775433 163 165 163
3.04863 -6.0503 1.93089 0.0882359 0.373921 -0.923254 115 118 115
3.13288 -6.0603 1.94517 0.0824329 0.461668 -0.883215 143 145 142
3.14565 -6.07011 1.93998 0.106108 0.521209 -0.846807 139 142 139
3.21456 -6.08614 1.94883 0.076529 0.527504 -0.846099 109 113 109
3.17845 -6.06226 1.95679 0.212066 0.444591 -0.870268 133 135 131
3.24787 -6.06167 1.96158 -0.0255627 0.429198 -0.902848 105 110 109
3.40897 -6.11307 1.96438 0.498833 0.520129 -0.693276 126 129 125
3.48284 -6.09933 1.97266 0.0431546 0.451236 -0.891361 135 138 134
3.52944 -6.09641 1.9743 0.114763 0.441807 -0.889739 99 105 102
3.6102 -6.13385 1.98635 0.224599 0.414346 -0.881971 152 154 152
3.63881 -6.09482 1.99686 0.109048 0.360834 -0.926233 99 104 105
3.67502 -6.12738 1.99166 0.122828 0.517592 -0.846766 97 101 99
3.71264 -6.09263 2.00466 0.0690783 0.388985 -0.918651 144 149 145
3.78293 -6.1136 2.00766 0.145123 0.423007 -0.89443 124 127 121
3.82489 -6.13615 2.00855 0.135928 0.400237 -0.906275 135 139 134
3.87612 -6.13573 2.01614 0.13157 0.399254 -0.907351 101 107 105
3.94822 -6.11891 2.0225 -0.11523 0.289806 -0.950123 96 103 103
4.00595 -6.13016 2.00742 -0.557795 0.544345 -0.626541 129 137 136
4.03594 -6.05138 1.99614 -0.504722 0.196015 -0.840734 149 159 160
4.0608 -5.96158 1.94992 -0.894723 0.390067 -0.217528 166 177 179
4.07249 -5.91257 1.94278 -0.936048 0.324303 0.136533 180 192 196
4.09361 -5.80085 1.89808 -0.910996 0.395398 -0.117245 208 220 224
4.11066 -5.75748 1.89769 -0.958055 0.198508 -0.206702 220 233 237
4.11906 -5.68873 1.86619 -0.954368 0.28022 -0.103238 218 230 233
4.14026 -5.60303 1.82166 -0.938152 0.263301 -0.224818 228 241 244
4.14075 -5.6062 1.82242 -0.930129 0.28164 -0.235667 228 240 244
4.15069 -5.5558 1.82028 -0.933276 0.250912 -0.256979 219 234 237
4.17194 -5.46517 1.77405 -0.95937 0.265969 -0.0941746 210 223 225
4.18248 -5.41373 1.77087 -0.945422 0.302924 -0.120055 202 214 217
4.20555 -5.38479 1.7372 -0.648339 0.340937 -0.680748 230 241 245
4.20822 -5.3459 1.73711 -0.923571 0.157014 -0.349805 215 226 230
4.21489 -5.27824 1.72652 -0.832381 0.341562 -0.436437 231 241 242
4.23332 -5.26065 1.69428 -0.860847 0.220377 -0.458669 202 211 212
4.24422 -5.21203 1.69281 -0.860353 0.340861 -0.378954 215 224 226
4.25863 -5.17171 1.69207 -0.830532 0.337192 -0.443304 202 211 213
4.27967 -5.1614 1.66244 -0.849172 0.258049 -0.460779 236 245 245
4.27922 -5.15672 1.66265 -0.831808 0.213353 -0.512421 235 244 244
4.27946 -5.15595 1.66245 -0.830203 0.215198 -0.514249 235 244 244
4.29327 -5.12752 1.66308 -0.844311 0.208193 -0.493755 222 232 232
4.3164 -5.05026 1.63078 -0.819062 0.384603 -0.425698 199 207 207
4.33377 -5.0219 1.63112 -0.816093 0.434255 -0.381334 230 238 239
4.35616 -5.00927 1.60505 -0.692278 0.465567 -0.55136 243 250 249
4.37337 -4.98248 1.60515 -0.769894 0.369979 -0.519979 241 249 248
4.37279 -4.98511 1.60403 -0.769528 0.369832 -0.520626 241 249 248
4.37558 -4.97986 1.60457 -0.73168 0.423672 -0.533991 240 249 248
4.38318 -4.9441 1.60427 -0.751734 0.315819 -0.578926 231 241 240
4.40996 -4.90494 1.59256 -0.770705 0.349212 -0.532977 238 247 247
4.45298 -4.85775 1.56949 -0.5693 0.646246 -0.508196 227 236 236
4.47679 -4.8387 1.56953 -0.6966 0.570581 -0.434956 242 248 247
4.50149 -4.82736 1.57015 -0.687374 0.54578 -0.479208 238 244 244
4.50682 -4.82076 1.56621 -0.595987 0.601646 -0.53181 236 242 243
4.52527 -4.79829 1.56709 -0.668783 0.464363 -0.580599 244 250 249
4.52664 -4.81707 1.54386 -0.67514 0.637502 -0.371183 187 195 196
4.54541 -4.78052 1.54245 -0.711139 0.334819 -0.618205 213 221 221
4.59231 -4.72366 1.5199 -0.775461 0.410152 -0.480038 207 217 217
4.61083 -4.7009 1.52715 -0.285164 0.843863 -0.454507 236 243 244
4.63098 -4.69749 1.51214 -0.532611 0.843926 -0.0641446 183 190 191
0.435539 -5.26459 1.50016 -0.234488 0.613473 -0.754099 143 143 134
0.422173 -5.31096 1.50425 -0.596046 0.32123 -0.735895 141 142 135
0.470597 -5.24773 1.49093 -0.292569 0.512763 -0.807142 146 147 136
0.502226 -5.24895 1.50944 0.425653 0.900801 -0.0858933 147 147 138
0.525094 -5.2542 1.50631 0.526748 0.848699 -0.0474046 148 148 139
0.531533 -5.27186 1.50794 0.356912 0.920598 -0.158472 149 149 140
0.569298 -5.27989 1.52623 0.260955 0.942836 -0.207274 150 150 140
0.600197 -5.24474 1.50004 -0.493429 0.254522 -0.831713 147 149 142
0.715315 -5.35166 1.5416 -0.65533 0.735665 -0.171285 168 167 163
0.7014 -5.33035 1.53658 -0.670793 0.717943 -0.185996 165 164 159
0.741353 -5.33701 1.54205 -0.55787 0.809182 -0.184409 176 176 174
0.743327 -5.33169 1.54251 -0.476646 0.847569 -0.233314 177 177 175
0.769644 -5.31271 1.55046 -0.40811 0.845966 -0.343204 185 185 184
0.789419 -5.32206 1.53395 -0.0322352 0.979944 -0.196651 188 189 189
0.855728 -5.32836 1.54575 0.0531543 0.938358 -0.341552 190 191 192
0.879129 -5.32958 1.56058 0.16591 0.890705 -0.423224 197 199 200
0.968527 -5.33646 1.56761 0.712012 0.69514 -0.0990935 199 203 206
0.993812 -5.35086 1.56666 0.551956 0.826487 0.110739 202 206 208
1.0395 -5.33227 1.56091 0.423876 0.865368 0.267333 209 213 217
1.10116 -5.34549 1.56296 0.193677 0.9784 -0.0722697 210 215 219
1.12631 -5.34453 1.57822 0.718123 0.695837 -0.010532 209 213 218
1.14762 -5.35609 1.5658 0.164855 0.985644 -0.0364617 200 203 204
1.19054 -5.36677 1.59367 0.518912 0.849388 -0.0962864 183 184 185
1.17707 -5.36642 1.57056 0.527665 0.819044 -0.225247 187 188 188
1.25163 -5.40044 1.59727 0.347919 0.919779 -0.181545 165 166 162
1.27457 -5.40081 1.61184 0.494715 0.833607 -0.245675 158 158 153
1.26696 -5.406 1.60162 0.342753 0.91456 -0.214709 161 161 156
1.28978 -5.41218 1.61613 0.500008 0.817347 -0.286246 150 150 144
1.31368 -5.42711 1.60473 -0.123584 0.973065 -0.194605 144 143 135
1.52547 -5.81559 1.782 0.743811 0.665104 -0.0661931 52 51 44
1.58191 -5.87536 1.79591 0.348698 0.241353 -0.905626 83 83 75
1.60725 -5.87225 1.80194 0.359083 0.355057 -0.86313 72 70 61
1.72418 -5.87667 1.80795 0.253414 0.31385 -0.91503 69 70 63
1.77532 -5.86915 1.81947 0.167521 0.3314 -0.928499 54 54 53
1.81286 -5.88821 1.8198 -0.00645318 0.349564 -0.93689 55 55 53
1.90127 -5.88692 1.82221 0.336491 0.354929 -0.872238 109 109 100
1.9026 -5.87055 1.82927 0.229701 0.348482 -0.908734 106 106 99
1.94915 -5.88001 1.83722 0.303932 0.357563 -0.883048 93 93 87
1.97734 -5.91992 1.83117 0.314714 0.358508 -0.878878 121 121 113
1.95007 -5.87097 1.84074 0.217868 0.356248 -0.908637 103 103 97
2.02837 -5.90032 1.84527 0.329826 0.358805 -0.873198 117 120 120
2.09754 -5.91124 1.84528 0.044097 0.366716 -0.929287 97 103 108
2.13557 -5.9155 1.85056 -0.0997988 0.385116 -0.917456 105 110 113
2.18111 -5.92273 1.84869 0.200288 0.293325 -0.934797 155 158 158
2.20526 -5.89502 1.86492 0.212892 0.324567 -0.921593 145 148 146
2.23384 -5.93439 1.85575 0.304986 0.295815 -0.90525 124 126 126
2.26769 -5.91614 1.86251 0.00737855 0.304539 -0.952471 127 130 129
2.32037 -5.9182 1.87419 0.195389 0.297007 -0.934671 153 157 157
2.39752 -5.92675 1.88863 0.167073 0.364525 -0.916083 106 113 117
2.44278 -5.92985 1.89382 0.093418 0.429097 -0.898415 110 117 120
2.49214 -5.92648 1.89657 0.0618007 0.360883 -0.930561 157 159 160
2.54718 -5.94053 1.90021 0.111298 0.370238 -0.922245 115 118 116
2.62282 -5.96926 1.89306 0.0350676 0.437033 -0.898761 137 141 139
2.59597 -5.9361 1.90636 0.128572 0.3774 -0.917082 161 163 162
2.64506 -5.93248 1.91097 0.153186 0.368823 -0.91679 123 129 129
2.69472 -5.94617 1.91332 0.267407 0.351633 -0.897133 89 97 102
2.74357 -5.95585 1.92296 0.145064 0.300685 -0.942627 97 104 106
2.82837 -6.01172 1.92024 0.055379 0.377516 -0.924345 142 145 142
2.85158 -5.97453 1.9383 0.0709841 0.362606 -0.929235 108 111 109
2.88157 -5.9572 1.93543 0.0545185 0.267164 -0.962108 137 140 138
2.93376 -5.97039 1.93843 -0.0221371 0.32993 -0.943746 129 133 134
2.91062 -6.0077 1.93321 -0.0243141 0.385188 -0.922518 134 137 136
2.96412 -6.00809 1.9327 0.383151 0.369912 -0.846381 103 108 109
2.95268 -6.01141 1.9292 0.167124 0.32208 -0.931844 102 106 107
3.07257 -6.01849 1.95225 0.0981134 0.370349 -0.923697 103 108 108
3.15148 -6.02385 1.96845 0.18049 0.354804 -0.917353 112 114 111
3.19731 -6.02407 1.97968 0.224343 0.390054 -0.893044 143 146 144
3.21511 -6.04575 1.97041 0.0258639 0.420087 -0.907115 121 125 124
3.27241 -6.01863 1.97684 -0.0258486 0.363652 -0.931176 101 108 110
3.31648 -6.07075 1.97868 -0.174325 0.35189 -0.919665 115 120 121
3.34295 -6.01824 1.98526 0.128892 0.279856 -0.95135 97 104 106
3.35269 -6.01625 1.98806 -0.10945 0.336222 -0.935401 102 108 109
3.40915 -6.06123 1.98898 -0.128092 0.375356 -0.917987 151 155 153
3.40613 -6.03044 1.98724 0.0238745 0.370209 -0.928641 150 153 151
3.44284 -6.07123 1.9882 -0.079016 0.372164 -0.924797 133 136 132
3.45656 -6.05444 1.98104 -0.232655 0.379608 -0.895416 125 128 124
3.49142 -6.06618 1.98311 -0.0209165 0.354613 -0.934779 139 143 139
3.46828 -6.02756 2.00141 -0.00577641 0.360169 -0.932869 131 134 131
3.51007 -6.02021 1.99112 -0.00264136 0.36369 -0.931516 154 157 155
3.5683 -6.05219 2.00071 -0.0143599 0.313026 -0.949636 100 107 109
3.57835 -6.0734 1.99119 0.100825 0.284883 -0.953245 98 104 105
3.60564 -6.01629 1.99847 0.00185142 0.211369 -0.977405 109 119 121
3.68593 -6.0466 2.01891 0.0974564 0.370303 -0.923784 113 120 118
3.73656 -6.05143 2.02344 0.0701439 0.369704 -0.926498 133 137 133
3.7888 -6.05312 2.01495 0.151306 0.283114 -0.947076 143 147 140
3.84842 -6.07041 2.02487 0.071155 0.306611 -0.949172 118 123 123
3.86694 -6.05839 2.02743 0.165383 0.408025 -0.897866 101 107 107
3.90511 -6.07022 2.02906 0.0711637 0.306585 -0.949179 99 107 108
4.00271 -6.09273 2.03328 -0.427162 0.289653 -0.856525 140 147 146
4.00485 -6.06961 2.02648 -0.77119 0.408295 -0.488428 144 152 150
4.02415 -6.02747 2.02482 -0.769672 0.421887 -0.479183 128 137 135
4.0429 -5.98301 2.02236 -0.863227 0.459093 0.209936 141 151 151
4.05468 -5.99564 1.99365 -0.90517 0.424494 0.0217105 188 198 200
4.07017 -5.92105 1.9827 -0.843852 0.463769 0.269875 207 220 225
4.07537 -5.8859 1.98128 -0.954658 0.181731 -0.235803 207 222 229
4.08478 -5.83091 1.93798 -0.912355 0.404762 -0.0614542 188 201 206
4.09802 -5.77749 1.93634 -0.91383 0.386096 -0.125874 211 225 230
4.11875 -5.70321 1.89594 -0.95516 -0.0359948 -0.293895 224 238 243
4.12578 -5.6271 1.86088 -0.928596 0.247083 -0.276874 191 204 207
4.12637 -5.62689 1.86123 -0.935691 0.253192 -0.245714 191 204 208
4.13529 -5.5766 1.85915 -0.933608 0.244671 -0.261747 191 204 208
4.15898 -5.47781 1.81127 -0.963793 0.261537 -0.0519773 220 235 238
4.17074 -5.43198 1.80862 -0.942388 0.315784 -0.110388 192 205 209
4.19677 -5.36254 1.76805 -0.939735 0.229088 -0.253803 183 195 199
4.20441 -5.31754 1.76122 -0.849969 0.343904 -0.399102 183 194 197
4.22406 -5.22209 1.72377 -0.849367 0.441108 -0.289827 190 201 203
4.23921 -5.19028 1.72316 -0.881298 0.342369 -0.325727 188 198 201
4.24007 -5.19109 1.72446 -0.881131 0.341621 -0.32696 190 200 202
4.23803 -5.17789 1.72235 -0.840357 0.399851 -0.365949 194 204 206
4.26021 -5.17094 1.69223 -0.898706 0.233091 -0.371477 201 210 212
4.26927 -5.13469 1.6937 -0.867992 0.354642 -0.34759 181 190 192
4.29478 -5.05639 1.65909 -0.788424 0.440469 -0.429389 232 240 240
4.31338 -5.0229 1.65879 -0.849361 0.465179 -0.249389 183 192 194
4.33124 -4.99317 1.65901 -0.847005 0.384207 -0.367379 184 195 198
4.3295 -4.98733 1.65835 -0.832624 0.383667 -0.39942 185 196 199
4.36086 -4.95755 1.63168 -0.777584 0.31548 -0.543907 185 196 198
4.37675 -4.92745 1.63204 -0.771659 0.352074 -0.529705 183 195 196
4.38698 -4.90689 1.61883 -0.697533 0.333325 -0.634304 213 224 224
4.4028 -4.87403 1.61874 -0.77914 0.389308 -0.491305 234 243 243
4.42484 -4.86705 1.59198 -0.702561 0.456698 -0.545743 186 196 196
4.46033 -4.84332 1.59173 -0.506396 0.802589 -0.315301 242 249 250
4.48217 -4.82411 1.59152 -0.534742 0.699177 -0.474555 239 244 244
4.50085 -4.80208 1.59235 -0.735976 0.383452 -0.557947 221 226 226
4.54102 -4.75673 1.56571 -0.66172 0.356178 -0.659745 246 251 249
4.54156 -4.7613 1.56727 -0.718426 0.36389 -0.59283 244 250 248
4.54891 -4.72657 1.56699 -0.66025 0.582342 -0.474288 228 233 232
4.56923 -4.72192 1.55002 -0.757482 0.468295 -0.454886 176 183 184
4.58843 -4.70004 1.55794 -0.411719 0.869741 -0.272101 224 231 232
4.61072 -4.69226 1.55115 -0.350055 0.887028 -0.301071 241 246 247
4.63051 -4.68739 1.53602 -0.441329 0.849403 -0.289383 187 193 195
0.421876 -5.29309 1.52807 0.0554137 0.650678 -0.757329 137 137 130
0.430075 -5.27219 1.53668 0.0599523 0.642141 -0.764239 135 136 128
0.461834 -5.25873 1.51662 0.275193 0.668152 -0.691261 141 142 133
0.501509 -5.24899 1.51821 0.0763535 0.443908 -0.892813 145 146 136
0.54751 -5.2559 1.52593 0.719139 0.677093 -0.156152 148 148 139
0.524652 -5.2458 1.53417 0.453851 0.783305 -0.424797 144 144 135
0.573654 -5.2727 1.55066 0.278422 0.336333 -0.899645 145 146 138
0.618332 -5.28011 1.53745 -0.104919 0.369032 -0.923476 151 152 145
0.661598 -5.29347 1.54998 -0.373767 0.508247 -0.775875 159 159 152
0.687041 -5.27959 1.55935 -0.170221 0.811605 -0.558858 161 161 155
0.684719 -5.26712 1.55641 -0.199658 0.834143 -0.514142 161 161 154
0.687013 -5.28935 1.55625 -0.287964 0.827272 -0.482389 161 161 155
0.702411 -5.3019 1.56593 -0.428967 0.733824 -0.526774 163 163 158
0.746922 -5.31167 1.56874 -0.543898 0.679108 -0.492937 175 176 173
0.769643 -5.30449 1.5704 -0.189845 0.89897 -0.394729 180 181 179
0.8328 -5.32213 1.58716 0.0288529 0.999164 0.0289751 180 181 181
0.856141 -5.32392 1.57374 -0.0776078 0.975944 -0.203742 192 194 194
0.878799 -5.32706 1.58808 0.227722 0.970178 -0.0830491 196 198 198
0.925833 -5.33284 1.58837 0.155422 0.987426 -0.0288839 195 198 200
0.90344 -5.32557 1.57433 0.184575 0.90498 -0.383333 196 198 199
0.950282 -5.34537 1.59409 -0.490712 0.613613 -0.618613 199 203 206
1.00247 -5.34263 1.58696 0.399902 0.914199 -0.0657156 205 209 211
1.05096 -5.35539 1.60493 0.786728 0.400537 -0.469711 206 210 213
1.09153 -5.35966 1.59598 0.024606 0.916795 -0.3986 206 210 214
1.11727 -5.33744 1.60591 0.684706 0.669887 0.287105 206 209 214
1.16568 -5.35083 1.59337 0.414654 0.888424 -0.19689 197 199 202
1.21279 -5.37487 1.60886 0.424245 0.899441 -0.104987 177 177 177
1.22852 -5.37085 1.63308 0.567091 0.800772 -0.192802 177 177 176
1.25135 -5.39916 1.62517 0.240004 0.874419 -0.421652 167 167 164
1.27544 -5.39756 1.64053 0.250887 0.867592 -0.429348 150 151 145
1.30609 -5.41897 1.64168 0.315362 0.87181 -0.374827 143 143 135
1.37157 -5.48266 1.68321 0.824571 0.552059 -0.123747 145 144 131
1.41319 -5.56111 1.68995 0.82567 0.523808 -0.209509 139 138 126
1.5078 -5.76055 1.77839 0.654803 0.482824 -0.581475 84 83 74
1.54506 -5.7944 1.80812 0.520158 0.37553 -0.76708 69 69 60
1.58831 -5.7285 1.79341 -0.336656 0.134825 -0.931926 94 93 82
1.58545 -5.78995 1.80367 -0.302327 0.463215 -0.833085 94 92 81
1.58084 -5.82099 1.80227 0.371748 0.236408 -0.897728 92 91 82
1.62799 -5.79331 1.81465 -0.0495252 0.205305 -0.977444 91 90 80
1.68684 -5.81041 1.81853 0.0231629 0.205271 -0.978431 92 92 83
1.7484 -5.82 1.8144 -0.27607 0.242866 -0.929947 58 59 55
1.72145 -5.78999 1.82946 -0.294066 0.2451 -0.923824 67 67 60
1.79851 -5.83527 1.82754 0.178342 0.298479 -0.937606 66 67 66
1.85038 -5.82583 1.83581 0.225438 0.280495 -0.933006 72 72 69
1.9228 -5.83122 1.84969 0.21466 0.353101 -0.910627 131 131 127
1.92289 -5.8344 1.84276 0.296619 0.352179 -0.887686 116 116 111
1.97043 -5.83106 1.86108 0.213331 0.353178 -0.910909 145 147 146
1.97049 -5.82574 1.86001 0.223903 0.352742 -0.908538 146 147 146
1.9705 -5.83069 1.86102 0.219326 0.352818 -0.909624 145 147 146
1.99757 -5.87104 1.85214 0.217915 0.35685 -0.908389 138 140 137
2.0472 -5.85535 1.86741 0.33092 0.355608 -0.874091 117 124 127
2.08287 -5.87284 1.85547 0.194102 0.291138 -0.936784 101 110 117
2.13174 -5.84474 1.87132 0.323519 0.327408 -0.887772 116 124 128
2.1596 -5.88843 1.86698 -0.0866541 0.385867 -0.918476 124 129 132
2.18432 -5.8357 1.87456 0.252509 0.285787 -0.924427 120 125 126
2.25677 -5.87893 1.87147 0.0976002 0.265991 -0.959022 136 140 139
2.29142 -5.86954 1.881 0.122488 0.240583 -0.962869 152 154 155
2.3211 -5.85207 1.89217 0.0182626 0.357103 -0.933887 118 123 123
2.3697 -5.86556 1.90256 0.10804 0.357964 -0.927464 140 146 148
2.41827 -5.88538 1.90683 0.020703 0.373138 -0.927545 137 144 145
2.46639 -5.88638 1.91037 0.0743265 0.359124 -0.930326 115 120 121
2.51583 -5.88666 1.9137 0.0776786 0.35829 -0.930373 141 144 144
2.56974 -5.897 1.91869 0.153443 0.363889 -0.918717 156 158 158
2.60001 -5.92987 1.90884 0.0677335 0.376072 -0.924112 163 165 164
2.57549 -5.88547 1.92208 0.07591 0.371984 -0.92513 152 154 154
2.62343 -5.888 1.92591 0.0727057 0.371966 -0.925395 118 121 121
2.6198 -5.88354 1.92357 0.136928 0.363248 -0.921576 120 123 124
2.62359 -5.88726 1.92587 0.0708868 0.37183 -0.92559 118 121 121
2.64847 -5.92952 1.91234 0.0697123 0.375529 -0.924185 116 121 122
2.67147 -5.89073 1.92995 0.0655929 0.371645 -0.926055 126 131 132
2.667 -5.87395 1.92439 0.0159226 0.304047 -0.952524 122 127 129
2.71807 -5.90319 1.9351 0.106007 0.366064 -0.924532 133 139 140
2.76469 -5.91916 1.94292 0.150314 0.366864 -0.918051 109 115 114
2.79284 -5.95183 1.93008 0.0726106 0.313611 -0.946771 158 161 161
2.90779 -5.91381 1.94929 0.0475559 0.258731 -0.964778 136 139 139
2.98056 -5.95736 1.95562 0.367116 0.334152 -0.868083 93 100 102
2.96011 -5.92953 1.95317 0.00680018 0.298798 -0.954292 101 106 107
3.02325 -5.95456 1.97727 0.431539 0.425984 -0.79518 117 122 122
3.04586 -5.97705 1.96526 0.173695 0.304988 -0.936383 97 103 104
3.09588 -5.97921 1.97127 0.107377 0.368753 -0.923304 152 156 154
3.14956 -5.98819 1.9842 0.193327 0.283901 -0.939162 109 112 109
3.21995 -5.96694 1.99816 -0.205604 0.346576 -0.915211 134 138 137
3.27202 -6.0143 1.99485 -0.214814 0.346195 -0.913238 110 117 118
3.34929 -5.94819 1.99716 -0.0602639 0.297228 -0.952903 123 128 129
3.38227 -5.99517 2.00356 0.0314039 0.408789 -0.912088 112 117 116
3.43279 -6.00614 1.9987 -0.0527912 0.346278 -0.936645 134 139 136
3.43152 -6.00534 2.00697 0.0474792 0.362117 -0.930923 140 145 142
3.48398 -5.97184 2.00453 0.168019 0.256983 -0.951698 147 150 148
3.53943 -5.9924 2.01085 0.175954 0.31156 -0.933794 104 110 110
3.53403 -5.96947 2.00361 -0.165316 0.214541 -0.962623 107 113 113
3.59062 -5.96386 2.01176 -0.0220653 0.249667 -0.96808 153 160 159
3.64932 -5.96395 2.01773 0.158751 0.274855 -0.948289 140 145 143
3.70285 -5.97459 2.027 -0.018478 0.205883 -0.978402 127 131 128
3.75573 -5.99988 2.02255 0.131739 0.251416 -0.958872 159 163 156
3.81512 -6.00156 2.03049 0.118552 0.277296 -0.953442 122 127 125
3.87042 -5.99489 2.0325 -0.148176 0.241503 -0.95902 132 138 136
3.91796 -6.02068 2.03381 0.059088 0.281182 -0.957834 134 141 141
3.97638 -6.01674 2.04324 0.170712 0.294041 -0.940424 117 125 124
4.08749 -5.82886 1.97472 -0.91821 0.12699 -0.375185 178 193 202
4.10342 -5.75944 1.97482 -0.96498 0.201709 -0.167713 183 197 206
4.10271 -5.63519 1.89475 -0.566694 0.000239432 -0.823928 220 236 241
4.11296 -5.65096 1.90215 -0.949632 0.182235 -0.254932 218 233 238
4.12278 -5.60498 1.90096 -0.907884 0.263188 -0.326312 183 198 202
4.12016 -5.6099 1.8998 -0.936411 0.308879 -0.166518 185 199 203
4.12299 -5.60198 1.9005 -0.893577 0.270858 -0.357988 184 198 203
4.13389 -5.5628 1.89962 -0.954885 0.2921 -0.0535917 220 234 238
4.14601 -5.52866 1.85783 -0.953431 0.250318 -0.168255 181 195 199
4.1612 -5.45447 1.84811 -0.947094 0.297405 -0.12068 227 241 244
4.18772 -5.39457 1.81066 -0.737705 0.120379 -0.664304 200 215 219
4.1819 -5.38255 1.80606 -0.939079 0.232318 -0.253297 198 211 215
4.1911 -5.33402 1.80434 -0.938914 0.22703 -0.258645 223 236 239
4.19505 -5.26758 1.78864 -0.878691 0.347599 -0.327228 205 216 218
4.20853 -5.23925 1.75538 -0.850581 0.410857 -0.328189 230 240 242
4.22328 -5.19753 1.75424 -0.930276 0.242624 -0.275174 231 240 240
4.2514 -5.14567 1.72207 -0.833591 0.331905 -0.441548 223 232 234
4.25844 -5.0731 1.71733 -0.897626 0.339387 -0.281218 197 207 209
4.25759 -5.08227 1.71854 -0.915431 0.345982 -0.205625 200 210 212
4.28019 -5.06668 1.68918 -0.806772 0.378218 -0.45395 228 238 238
4.29535 -5.02676 1.68793 -0.790335 0.482256 -0.377889 221 230 230
4.31379 -4.99899 1.6884 -0.792609 0.456748 -0.403921 228 238 238
4.31593 -5.00409 1.68884 -0.823866 0.424651 -0.375388 227 237 237
4.35571 -4.93413 1.65889 -0.770474 0.352726 -0.530994 206 217 219
4.38438 -4.87894 1.64199 -0.729246 0.472694 -0.494733 234 243 243
4.39178 -4.88573 1.63086 -0.79593 0.355914 -0.489715 237 246 246
4.38408 -4.87813 1.6417 -0.777606 0.411414 -0.475465 233 243 243
4.40524 -4.85567 1.64149 -0.607402 0.636158 -0.475779 218 225 225
4.43519 -4.84204 1.62 -0.678788 0.666794 -0.307623 177 185 187
4.44511 -4.83307 1.61854 -0.691812 0.651673 -0.310997 184 192 193
4.45616 -4.82141 1.61984 -0.697503 0.600177 -0.391507 180 188 190
4.47812 -4.80463 1.61783 -0.755262 0.422474 -0.501095 174 181 183
4.49508 -4.77281 1.61626 -0.758734 0.443705 -0.476916 171 179 180
4.51744 -4.7709 1.59239 -0.71169 0.373476 -0.59499 208 214 214
4.53358 -4.73702 1.59217 -0.739769 0.623525 -0.252901 241 246 247
4.56881 -4.70533 1.57253 -0.45153 0.785814 -0.422632 176 182 183
4.58833 -4.69021 1.58101 -0.331911 0.873736 -0.355556 226 233 234
4.60829 -4.68485 1.56723 -0.305962 0.901627 -0.305708 245 251 251
4.63392 -4.66367 1.58315 -0.179932 0.885866 -0.427628 213 219 220
0.408357 -5.26028 1.54888 -0.00333548 0.820429 -0.571739 135 135 127
0.422091 -5.26361 1.54728 -0.328408 0.410378 -0.850728 133 133 127
0.433366 -5.25884 1.56311 0.475488 0.869832 -0.131543 137 138 130
0.455438 -5.26039 1.54153 0.307135 0.803824 -0.509445 135 136 127
0.477213 -5.2469 1.5362 -0.0651927 0.821362 -0.56667 137 137 129
0.501512 -5.23497 1.54399 -0.259803 0.888229 -0.378882 138 138 130
0.499668 -5.24393 1.55877 0.580646 0.799019 0.156262 136 137 129
0.548158 -5.25357 1.56356 0.733267 0.49069 -0.470683 140 140 133
0.598387 -5.28237 1.56612 -0.25408 0.517416 -0.817144 147 148 140
0.631642 -5.28521 1.57027 -0.369855 0.505964 -0.779235 151 152 145
0.697704 -5.2994 1.57354 -0.40174 0.661584 -0.633175 162 162 157
0.70161 -5.30155 1.57283 -0.299419 0.778138 -0.552131 163 163 158
0.721895 -5.30247 1.58258 -0.155957 0.753771 -0.638363 166 167 162
0.745137 -5.29819 1.59247 -0.199032 0.801835 -0.563424 169 170 166
0.769925 -5.30315 1.57759 -0.215165 0.878074 -0.427424 178 179 177
0.809461 -5.32044 1.60059 0.145286 0.962313 -0.229882 174 176 175
0.833408 -5.31716 1.61459 0.157622 0.908507 -0.387002 177 179 178
0.854947 -5.32324 1.60139 -0.151329 0.983472 -0.0994105 189 190 191
0.87838 -5.32523 1.61546 0.371413 0.921389 -0.114435 192 193 194
0.918274 -5.35613 1.61876 -0.0959095 0.973901 -0.205713 190 192 195
0.901098 -5.33643 1.60276 0.562056 0.824543 -0.0649802 191 193 194
0.943419 -5.33356 1.62302 -0.289449 0.743845 -0.602423 194 197 200
1.00432 -5.34325 1.63023 0.473681 0.640203 -0.604787 205 209 213
1.02793 -5.34353 1.61615 0.769481 0.412342 -0.487722 207 211 215
1.05056 -5.34943 1.63101 0.10645 0.929015 -0.354399 202 205 209
1.07659 -5.35343 1.64392 0.161769 0.838635 -0.520117 192 195 199
1.07379 -5.34951 1.64455 0.107525 0.915847 -0.386862 191 194 197
1.07352 -5.35009 1.64463 0.115937 0.905607 -0.407964 191 194 197
1.08959 -5.35379 1.61977 -0.228354 0.619313 -0.751203 201 204 208
1.08796 -5.3599 1.62092 0.0345978 0.822372 -0.567897 201 204 208
1.11594 -5.35041 1.63459 0.158969 0.957192 0.241894 197 200 204
1.14314 -5.33914 1.6182 0.233192 0.966722 0.105214 207 210 215
1.16636 -5.35026 1.65019 0.265962 0.904259 0.334035 199 201 206
1.22741 -5.38274 1.66617 0.152239 0.982539 -0.106963 177 179 179
1.25125 -5.38824 1.65115 0.390654 0.870978 -0.297971 163 164 161
1.27355 -5.40104 1.66906 0.46068 0.880306 -0.113296 149 149 143
1.27601 -5.39451 1.67005 0.532707 0.825695 -0.185608 149 148 142
1.30091 -5.41103 1.67024 0.539163 0.822948 -0.179055 144 144 135
1.29543 -5.40998 1.65455 0.552856 0.792374 -0.257863 144 144 136
1.32554 -5.40793 1.67928 0.636411 0.752321 0.170279 144 144 133
1.38851 -5.48171 1.71148 0.823761 0.551255 -0.132425 144 143 133
1.45645 -5.57643 1.75622 0.6203 0.669598 -0.408494 119 118 106
1.43485 -5.57306 1.72854 0.785698 0.451921 -0.422429 125 124 113
1.54275 -5.7483 1.80833 0.46486 0.314799 -0.827531 89 89 82
1.56934 -5.71318 1.81681 -0.0103285 0.372048 -0.928156 113 113 103
1.56666 -5.674 1.80361 -0.593299 0.398564 -0.699388 118 117 107
1.61326 -5.70668 1.81358 -0.0259063 0.308454 -0.950886 89 88 77
1.6506 -5.74269 1.83339 0.330711 0.238032 -0.91322 75 75 68
1.69596 -5.74729 1.84178 0.11643 0.317497 -0.941084 106 105 98
1.69636 -5.7459 1.84168 0.175439 0.294349 -0.939457 106 106 98
1.77025 -5.79324 1.83539 0.0922289 0.328225 -0.940086 98 99 93
1.82222 -5.78359 1.84357 0.206555 0.303899 -0.930043 114 116 112
1.89587 -5.78942 1.85823 0.20072 0.350347 -0.91486 137 139 137
1.94344 -5.78611 1.86857 0.22391 0.349444 -0.909809 126 128 130
1.94323 -5.78931 1.86937 0.21363 0.349727 -0.91217 126 129 130
2.02119 -5.80819 1.87176 -0.0100471 0.401893 -0.915632 129 133 134
2.10267 -5.81266 1.87894 0.286498 0.354995 -0.889886 147 152 155
2.18654 -5.82076 1.88382 0.231255 0.275513 -0.933067 128 133 134
2.24373 -5.80543 1.89377 0.206019 0.281205 -0.937273 126 130 131
2.24373 -5.80543 1.89377 0.206019 0.281205 -0.937273 126 130 131
2.23875 -5.82651 1.88684 0.242918 0.273096 -0.930811 155 159 160
2.29659 -5.77133 1.89214 -0.0914795 0.184678 -0.978532 156 161 163
2.34509 -5.7863 1.8984 -0.380639 0.222748 -0.897495 152 157 157
2.34515 -5.82003 1.91201 0.11299 0.354979 -0.928021 147 151 151
2.39338 -5.82061 1.91765 0.105027 0.354993 -0.92895 126 131 130
2.44203 -5.84291 1.92241 0.0156908 0.35671 -0.934083 153 157 156
2.49088 -5.84161 1.92302 0.0156989 0.352816 -0.935561 135 139 139
2.5391 -5.81817 1.9155 -0.00400605 0.225262 -0.97429 148 151 151
2.69309 -5.85826 1.94703 0.181952 0.36637 -0.912506 139 143 142
2.74064 -5.86329 1.9532 0.104695 0.363333 -0.925758 145 150 148
2.79213 -5.8515 1.95638 0.148259 0.291994 -0.944859 135 139 138
2.81613 -5.90425 1.94777 0.113257 0.301676 -0.94666 135 139 137
2.87088 -5.89579 1.95237 0.119141 0.300822 -0.946209 156 159 158
2.93577 -5.86822 1.96421 0.115179 0.215703 -0.969642 131 136 136
2.90209 -5.84607 1.96473 0.0745388 0.245846 -0.966439 147 153 152
2.9891 -5.89153 1.96996 0.170339 0.227252 -0.958823 149 153 152
3.0237 -5.94523 1.98503 0.241578 0.385834 -0.890378 133 138 137
2.98835 -5.90077 1.98645 0.182753 0.393684 -0.900896 134 138 137
3.0703 -5.93277 1.98491 0.168403 0.329067 -0.929169 101 105 104
3.11816 -5.94314 1.99094 0.258444 0.28175 -0.924026 131 136 134
3.16856 -5.91878 2.00118 -0.108009 0.351516 -0.92993 145 149 147
3.24584 -5.91599 2.00527 -0.193335 0.34362 -0.918992 142 147 146
3.29876 -5.94773 2.00081 -0.071121 0.337822 -0.938519 146 152 150
3.26212 -5.87488 1.99686 -0.128671 0.192808 -0.972764 151 156 156
3.32238 -5.8905 2.00779 0.0766435 0.292922 -0.95306 118 122 120
3.35528 -5.94212 2.01672 0.150173 0.378989 -0.913135 142 147 145
3.40419 -5.95128 2.01999 0.0204343 0.352763 -0.93549 132 137 136
3.50359 -5.90337 2.01339 -0.158731 0.187126 -0.969427 152 159 158
3.61975 -5.9234 2.02992 -0.12304 0.388588 -0.91316 124 128 124
3.67784 -5.92211 2.03922 -0.24601 0.195284 -0.949391 147 149 145
3.74432 -5.94555 2.03468 0.112374 0.235466 -0.965364 124 128 126
3.76918 -5.91838 2.04352 0.0499632 0.210831 -0.976245 115 121 120
3.83467 -5.92744 2.04106 -0.100466 0.202119 -0.974194 145 151 147
3.90902 -5.96256 2.04706 0.234391 0.462636 -0.855002 120 125 123
3.94323 -5.96273 2.0515 0.135726 0.278887 -0.950684 128 134 132
3.99896 -5.94626 2.05663 0.124338 0.276681 -0.952884 155 162 160
4.05115 -5.91459 2.04621 -0.850449 0.483634 -0.206966 114 122 121
4.08438 -5.85593 2.01638 -0.886193 0.439883 0.145482 180 194 198
4.07263 -5.8858 2.04844 -0.906586 0.395357 -0.14763 130 141 141
4.09406 -5.795 2.00793 -0.920215 0.135956 -0.367041 184 199 207
4.11798 -5.71258 1.96901 -0.95637 0.266199 -0.120394 181 197 205
4.11746 -5.64509 1.94761 -0.94454 0.325259 0.0452723 223 239 244
4.1272 -5.59479 1.94265 -0.92168 0.31336 -0.228716 225 241 245
4.12612 -5.59649 1.94521 -0.894231 0.236074 -0.380289 226 241 245
4.14986 -5.47466 1.8871 -0.957942 0.269642 -0.0981823 191 206 208
4.16918 -5.40163 1.84357 -0.735013 0.11922 -0.667489 229 243 247
4.17696 -5.35612 1.84311 -0.939212 0.228999 -0.255814 223 236 239
4.18246 -5.3006 1.82386 -0.823984 0.22065 -0.521884 224 235 236
4.20802 -5.22079 1.7869 -0.906866 0.353595 -0.229268 235 246 247
4.21919 -5.18455 1.78817 -0.886449 0.313982 -0.340033 213 223 225
4.236 -5.168 1.75531 -0.878801 0.339054 -0.335783 242 250 250
4.23616 -5.16659 1.75632 -0.876591 0.339221 -0.341346 242 250 250
4.24216 -5.08094 1.7456 -0.871002 0.431016 -0.235756 228 237 236
4.24406 -5.11971 1.75209 -0.825435 0.329018 -0.458698 242 250 248
4.27827 -5.04165 1.7168 -0.82288 0.472195 -0.31607 242 250 250
4.29634 -5.01107 1.71672 -0.850337 0.390782 -0.352443 242 250 250
4.33227 -4.94171 1.68569 -0.760445 0.315104 -0.567832 244 252 252
4.32712 -4.96534 1.68793 -0.831991 0.315852 -0.456102 243 252 251
4.35224 -4.90739 1.68416 -0.762165 0.347378 -0.546291 210 220 221
4.35073 -4.90436 1.68505 -0.816166 0.367165 -0.446165 209 219 219
4.3715 -4.89636 1.6581 -0.777291 0.432175 -0.457213 198 208 210
4.38856 -4.85774 1.66464 -0.610971 0.708984 -0.352217 245 252 251
4.39868 -4.84549 1.66754 -0.579711 0.734491 -0.352785 245 250 249
4.40999 -4.83761 1.66448 -0.611958 0.636953 -0.468827 238 244 243
4.42894 -4.83555 1.64174 -0.619994 0.713333 -0.326747 185 192 193
4.44161 -4.82966 1.64398 -0.639359 0.714083 -0.285141 195 202 203
4.45992 -4.79594 1.64235 -0.791725 0.559073 -0.246189 221 228 228
4.47968 -4.77803 1.64322 -0.827743 0.508344 -0.237544 224 231 232
4.50963 -4.74742 1.6174 -0.742161 0.384804 -0.548746 191 199 200
4.53154 -4.7072 1.61665 -0.377279 0.879473 -0.290151 241 246 246
4.55148 -4.70336 1.60378 -0.397422 0.887059 -0.234909 189 196 196
4.57373 -4.69088 1.60373 -0.426106 0.885393 -0.185777 170 177 178
4.5937 -4.68081 1.61367 -0.541646 0.803633 -0.246565 166 174 176
4.60736 -4.67662 1.59148 -0.429523 0.88928 -0.157134 212 218 219
4.61529 -4.66528 1.60512 -0.624371 0.621031 -0.473795 165 172 174
0.433196 -5.25473 1.58915 0.353009 0.275892 -0.894018 138 139 133
0.454675 -5.24793 1.57203 0.19184 0.977638 -0.0861481 139 140 132
0.477521 -5.24681 1.56569 0.569269 0.797055 0.201584 137 137 130
0.505683 -5.22953 1.57492 0.543023 0.804601 0.2403 139 140 132
0.526069 -5.23259 1.56776 0.719446 0.67701 0.155096 138 138 131
0.572812 -5.2614 1.57837 -0.34734 0.660419 -0.665734 140 140 133
0.599043 -5.24903 1.58537 -0.312127 0.654261 -0.688854 141 141 135
0.602745 -5.26756 1.58876 -0.39139 0.481767 -0.784038 142 143 136
0.624333 -5.25539 1.59976 0.790682 0.605346 -0.0915362 142 142 137
0.684454 -5.25427 1.58845 0.155208 0.744448 -0.649391 156 157 151
0.679059 -5.26554 1.58931 0.699462 0.466296 -0.54159 156 157 150
0.70414 -5.27719 1.61914 0.041899 0.827233 -0.560295 155 156 151
0.701817 -5.27481 1.60582 0.0828746 0.75034 -0.655837 158 158 153
0.698205 -5.28541 1.61509 0.587397 0.807553 -0.0531309 156 156 151
0.741722 -5.29275 1.61799 -0.141543 0.889572 -0.434313 163 164 160
0.730908 -5.28037 1.60704 -0.123095 0.7969 -0.591438 163 164 159
0.770115 -5.28558 1.6016 -0.203502 0.79612 -0.569895 170 172 168
0.810203 -5.30574 1.62544 -0.641895 0.65484 -0.398943 173 174 172
0.855423 -5.31813 1.6284 -0.0430283 0.943442 -0.328735 185 186 186
0.900009 -5.33487 1.63011 0.389854 0.91818 -0.0704208 185 187 188
0.877377 -5.32684 1.64345 0.464245 0.882927 0.0701145 183 185 185
0.941443 -5.33728 1.64828 0.373086 0.899424 -0.227692 190 193 195
