ply
format ascii 1.0
element vertex 727
property float x
property float y
property float z
property float nx
property float ny
property float nz
property uchar diffuse_red
property uchar diffuse_green
property uchar diffuse_blue
end_header
-1.13171 9.69047 1.80226 -0.561208 -0.645698 -0.517803 79 106 113
-1.05222 9.71001 1.80013 -0.214918 -0.974431 0.0655315 99 123 126
0.179826 9.77624 1.71277 -0.521018 -0.493357 -0.69652 104 126 129
0.195459 9.82055 1.80028 -0.632331 -0.576783 -0.517185 67 94 101
0.313893 9.86624 1.71216 -0.649307 -0.531212 -0.544255 73 99 104
0.313893 9.86624 1.71216 -0.649307 -0.531212 -0.544255 73 99 104
0.313893 9.86624 1.71216 -0.649307 -0.531212 -0.544255 72 98 103
1.75989 9.81944 1.7021 0.320002 -0.791808 0.52023 122 146 151
2.01773 10.1272 1.68135 0.508637 -0.821591 0.257443 93 117 121
2.10328 10.1336 1.7322 0.46141 -0.85141 0.249403 98 121 124
2.10328 10.1336 1.7322 0.460533 -0.851495 0.25073 98 121 125
2.32441 10.1554 1.72115 -0.049547 -0.996941 0.0604506 135 155 155
2.41782 10.1421 1.6775 -0.159684 -0.926377 0.341068 97 118 118
2.69093 10.154 1.6742 -0.650212 -0.684227 0.330238 118 137 140
2.88943 10.238 1.66072 -0.22163 -0.873432 -0.433585 114 133 134
-1.28333 9.85373 1.75497 -0.112201 -0.948052 0.297672 78 107 114
-1.2858 9.84734 1.75215 0.00135699 -0.968823 0.247749 79 107 114
-1.20634 9.85246 1.80018 -0.7145 -0.698627 -0.037542 66 95 103
-1.13327 9.73228 1.7302 -0.623351 -0.732296 0.274183 69 97 103
-1.05768 9.69369 1.72043 -0.673431 -0.682105 0.284997 73 100 104
-0.985137 9.81987 1.75549 -0.268243 -0.861994 0.43013 113 135 135
0.0970233 9.87763 1.6442 0.423956 -0.67289 -0.606202 141 158 157
0.409427 9.94025 1.68538 -0.530425 -0.482243 -0.697202 75 101 104
0.527059 10.0107 1.71114 0.472381 -0.789504 -0.391841 90 114 116
0.790485 9.98551 1.64492 -0.276976 -0.960544 -0.0252804 127 146 146
0.886902 9.91032 1.6151 -0.513788 -0.851507 0.104682 134 153 153
1.0595 9.82473 1.56732 -0.785092 -0.464405 0.409827 151 169 170
1.21625 9.99951 1.62043 -0.247744 -0.919911 0.303952 121 143 145
1.32958 9.82485 1.55264 -0.623375 -0.760883 0.18017 118 137 137
1.5046 9.81499 1.56193 0.0740539 -0.994386 0.0755776 91 111 110
1.593 9.85033 1.60074 -0.407295 -0.904335 -0.12763 111 130 129
1.75276 9.81955 1.60566 0.128824 -0.971869 -0.197166 142 161 161
1.66998 9.83381 1.55376 -0.0716899 -0.971008 -0.228045 107 127 126
1.86578 9.93049 1.59327 0.0475085 -0.998492 0.0274994 146 164 166
2.23519 10.1349 1.57597 -0.0949943 -0.903643 0.417618 91 113 115
2.32497 10.1001 1.53146 -0.0801577 -0.93913 0.334079 68 93 96
2.33012 10.1301 1.62465 -0.134506 -0.918087 0.372861 86 109 110
2.41626 10.1106 1.58293 -0.0874429 -0.94486 0.315584 73 97 99
2.71497 10.2689 1.54682 0.374995 -0.833519 0.40574 128 145 146
2.8873 10.2778 1.55752 0.251216 -0.884105 -0.394017 130 147 148
2.99073 10.3166 1.60748 0.114993 -0.978127 -0.173331 100 118 118
3.08358 10.3395 1.55768 -0.121087 -0.98582 0.116177 87 107 108
4.01123 9.88274 1.47058 -0.322002 -0.912128 0.253646 132 153 155
-2.71064 9.58854 1.6723 -0.359773 -0.697638 -0.619568 108 130 137
-1.35614 9.81154 1.71188 0.164083 -0.986395 -0.0100623 118 143 149
-1.28064 9.81468 1.66858 -0.344777 -0.837469 -0.423998 129 150 154
-1.20566 9.82085 1.69662 -0.47015 -0.840189 -0.270261 83 109 115
-1.20285 9.81639 1.61251 -0.433578 -0.821911 -0.369421 130 151 153
-1.11116 9.72641 1.63705 -0.566685 -0.554266 -0.609637 80 105 110
-1.12762 9.75157 1.64191 -0.521747 -0.64343 -0.560158 82 106 111
-0.423615 9.95742 1.58917 0.148892 -0.980725 -0.126533 121 136 137
0.00697724 9.91424 1.57097 -0.76515 -0.594498 0.247221 105 123 120
0.192991 9.92211 1.61806 0.318685 -0.739763 -0.592614 141 158 158
0.27094 9.89633 1.57798 -0.329408 -0.942375 -0.0584835 146 163 164
0.396917 9.91648 1.59838 0.537333 -0.772554 0.33828 112 133 135
0.598812 9.92006 1.55178 -0.363114 -0.900274 -0.240113 125 145 147
0.66212 9.85142 1.50014 -0.823161 -0.543218 -0.16529 89 112 115
0.710921 10.0081 1.60136 -0.1401 -0.970409 -0.196669 125 145 146
0.91063 9.84903 1.53284 -0.620997 -0.756342 0.205694 116 137 138
1.32889 9.80036 1.46133 0.0203438 -0.975415 0.219435 125 144 144
1.40891 9.8061 1.50696 -0.607052 -0.757352 0.240636 96 116 116
1.49955 9.79855 1.44412 -0.341197 -0.834893 0.4319 93 113 114
1.6713 9.86051 1.46022 -0.0505486 -0.975489 -0.214163 116 136 135
1.58618 9.83032 1.50986 0.381192 -0.783366 -0.490948 87 108 107
2.0543 10.1361 1.48715 0.581844 -0.772639 -0.253942 139 156 155
2.23432 10.0991 1.48167 -0.108321 -0.917676 0.382279 103 125 127
2.42393 10.1001 1.48487 -0.702921 -0.594958 0.389778 86 110 113
2.66814 10.2153 1.4889 0.306276 -0.947825 -0.0884504 106 125 126
2.81514 10.3199 1.49629 0.0965833 -0.974765 -0.201257 129 148 150
2.80203 10.2797 1.50719 0.13093 -0.984709 -0.114916 134 152 153
2.89612 10.3043 1.45604 0.0326893 -0.999461 -0.00311665 135 155 156
2.89369 10.2881 1.4461 -0.143397 -0.986264 -0.0819761 131 152 153
2.98629 10.316 1.50596 0.0623209 -0.990854 -0.119683 133 152 153
3.10501 10.327 1.41891 -0.350849 -0.869804 0.346909 139 159 159
3.27725 10.141 1.38248 -0.68519 -0.666685 -0.293336 143 162 163
-4.43734 8.59234 1.56939 0.186826 -0.520726 -0.833031 138 153 153
-4.26902 8.66969 1.59406 -0.292419 -0.749946 -0.593357 70 92 93
-4.33647 8.67106 1.57018 0.212058 -0.517644 -0.828901 80 100 100
-4.26891 8.70905 1.58287 -0.34995 -0.684533 -0.639492 66 88 90
-4.14883 8.84053 1.57572 0.774289 -0.430259 -0.464063 68 93 98
-4.06876 8.89251 1.58445 0.914283 -0.38425 -0.12821 81 106 113
-2.60631 9.64559 1.63748 0.61431 -0.535499 0.579538 88 109 113
-1.2791 9.83523 1.58395 -0.414328 -0.813338 0.408429 152 169 169
-1.19779 9.76857 1.53006 -0.578993 -0.768155 0.273323 141 159 158
-1.12637 9.76556 1.55614 -0.283722 -0.900392 -0.329844 125 145 146
-0.501869 9.90461 1.54593 0.312217 -0.945113 0.0963426 126 143 142
-0.344424 9.97486 1.54482 -0.573808 -0.818152 -0.0370285 121 137 138
-0.0686826 10.0041 1.48509 -0.692189 -0.693185 0.200919 94 113 110
0.0055731 9.93313 1.48047 -0.00969462 -0.957099 -0.2896 81 101 98
0.0906129 9.936 1.52514 -0.581468 -0.670907 -0.460194 91 109 107
0.178741 9.88995 1.52449 0.167366 -0.892308 -0.419256 115 132 131
0.443419 9.98277 1.46983 -0.752479 -0.436823 -0.49291 154 170 168
0.57705 9.85066 1.46385 -0.829162 -0.547139 0.114585 118 139 140
0.656245 9.84462 1.46114 -0.633534 -0.695652 -0.338679 95 117 120
0.760956 9.90227 1.49604 -0.730369 -0.62956 -0.264981 76 101 104
0.76929 9.90998 1.45665 -0.379041 -0.909979 -0.168126 81 106 108
0.760956 9.90227 1.49604 -0.730369 -0.62956 -0.264981 79 104 107
0.997252 9.88174 1.46695 -0.474858 -0.805316 -0.354932 119 140 139
1.04168 9.84088 1.38608 -0.538922 -0.81817 -0.200402 116 137 137
1.0805 9.83619 1.46645 -0.547129 -0.727787 -0.413493 136 155 154
1.23826 9.79896 1.42109 -0.138821 -0.920372 -0.365573 147 167 166
1.41573 9.82203 1.41361 -0.630729 -0.753853 0.184084 123 142 143
1.64263 9.91121 1.37459 -0.610651 -0.679342 -0.40694 138 157 156
1.74346 9.89851 1.3701 -0.0134569 -0.970537 -0.240575 127 147 145
1.88508 10.1282 1.38354 -0.290651 -0.904051 0.313391 114 134 132
1.97896 10.0741 1.43247 -0.0557801 -0.950132 -0.30682 110 128 126
2.0719 10.069 1.38008 -0.0107015 -0.999286 -0.0362313 98 119 117
2.15208 10.0857 1.43143 -0.0361509 -0.991485 0.125099 135 156 155
2.24169 10.1155 1.3854 0.313592 -0.787653 -0.530342 116 135 137
2.42712 10.1931 1.38737 -0.113867 -0.985826 0.12321 122 142 143
2.64883 10.2005 1.38298 0.238731 -0.962758 -0.1269 91 110 112
2.58339 10.208 1.43313 0.295473 -0.934204 -0.199894 127 147 149
2.76002 10.2223 1.35329 0.280445 -0.796192 0.536124 68 90 92
2.79788 10.2673 1.40753 0.374782 -0.863709 0.336964 91 112 113
2.98192 10.2866 1.38748 -0.415982 -0.909037 0.0247319 121 145 146
3.17701 10.283 1.36321 -0.388396 -0.90526 0.1722 149 169 169
3.16205 10.2009 1.38602 -0.90058 -0.322632 -0.291316 145 164 164
3.17961 10.092 1.29715 -0.930509 -0.343022 0.128407 119 143 144
3.16275 9.98903 1.29259 -0.926728 -0.362768 0.0978528 114 138 140
3.22362 9.95634 1.29767 -0.879954 -0.350567 0.320599 91 116 118
3.62757 9.79727 1.24012 -0.144362 -0.987766 0.0589731 142 162 166
4.11989 9.83335 1.18627 -0.457368 -0.701262 0.546852 131 150 153
-4.36703 8.68722 1.54932 0.218995 -0.542659 -0.810902 82 101 102
-4.26318 8.72072 1.51079 -0.320678 -0.68182 -0.657485 66 88 91
-4.2106 8.77876 1.54627 0.46653 -0.711581 -0.52536 64 88 92
-4.03 9.10404 1.57832 0.913496 -0.406797 -0.00643487 97 120 125
-2.77749 9.6888 1.57805 0.625554 -0.545081 -0.558183 150 167 168
-2.43678 9.7078 1.52718 -0.6768 -0.597214 -0.430438 100 118 118
-0.210942 10.0426 1.43913 0.184096 -0.751444 -0.633593 133 148 147
-0.116806 10.0079 1.42887 -0.503079 -0.688268 -0.522684 115 132 130
-0.00541175 9.92664 1.4379 -0.447763 -0.890328 -0.0826128 87 106 103
0.285717 10.0159 1.37983 0.450414 -0.865445 0.21939 134 151 149
0.538083 9.9688 1.42928 -0.104901 -0.886459 -0.450762 151 168 167
0.540448 9.95661 1.3388 -0.103229 -0.946281 0.306426 131 152 151
0.608848 9.9096 1.38826 -0.836976 -0.54714 -0.0104117 143 164 165
0.729847 9.88583 1.3724 -0.358383 -0.885703 0.295113 114 135 138
0.864781 9.89438 1.3907 -0.00373144 -0.962714 -0.270496 125 148 150
1.04535 9.85377 1.29036 -0.483311 -0.782758 0.392047 88 110 110
1.126 9.86144 1.33737 0.107138 -0.992691 0.0555579 87 111 110
1.24405 9.87267 1.3287 -0.561367 -0.511546 -0.650528 104 130 128
1.32258 9.85241 1.32928 -0.64624 -0.470615 -0.600746 128 150 149
1.46805 9.90615 1.3212 0.411297 -0.797891 -0.440686 141 161 160
1.96562 10.1021 1.33855 -0.274673 -0.936044 0.219946 76 98 97
2.03803 10.0521 1.29681 -0.297504 -0.71292 -0.635009 75 99 99
2.15711 10.0683 1.33092 -0.0691552 -0.982734 0.171616 103 123 123
2.48507 10.1206 1.24381 0.185297 -0.91584 -0.356234 119 136 136
2.50798 10.173 1.24051 -0.758003 -0.610865 0.228638 116 134 133
2.64161 10.1389 1.27059 0.390204 -0.863416 0.319771 88 108 110
2.78987 10.2206 1.25634 -0.629838 -0.55829 0.540015 71 95 98
2.91216 10.3442 1.33483 0.343001 -0.843059 0.414249 76 102 105
3.02549 10.3143 1.26885 -0.143417 -0.986838 0.0747144 76 105 108
3.10814 10.3413 1.3185 -0.185889 -0.980062 -0.0701718 125 149 150
3.05751 10.3267 1.28706 -0.788496 -0.468048 -0.399004 98 124 126
3.1474 10.2837 1.28199 -0.638381 -0.69314 -0.334703 121 145 147
3.27269 9.98516 1.16958 -0.651041 -0.551631 -0.521391 61 93 101
3.35512 9.86317 1.1705 -0.311712 -0.920434 -0.235876 89 117 123
3.44384 9.84184 1.21234 -0.4172 -0.805252 0.421323 111 135 139
-4.18489 8.76776 1.46975 0.836281 -0.419081 -0.353561 104 123 125
-4.10448 8.92397 1.46997 0.886887 -0.382966 0.258396 134 151 153
-0.780057 9.87872 1.31831 -0.338462 -0.872817 0.351616 115 132 133
-0.408504 9.99747 1.39201 0.636464 -0.718563 0.280321 110 128 127
-0.306266 10.0874 1.3913 0.0602935 -0.793229 -0.605932 128 143 142
-0.217615 9.9803 1.35433 -0.00117268 -0.845478 -0.534009 131 147 145
-0.216106 10.0872 1.36498 -0.134659 -0.768779 -0.625176 140 156 154
-0.133078 10.0099 1.34577 -0.758231 -0.599627 0.255995 145 161 160
-0.118525 9.94052 1.34038 0.206897 -0.806058 -0.554494 144 160 159
-0.0389706 9.87889 1.34799 -0.315032 -0.8774 -0.361835 131 146 146
0.0864167 9.83321 1.33234 -0.659332 -0.511929 -0.550645 146 161 160
0.183137 9.81514 1.32831 -0.421466 -0.866543 -0.267339 143 159 159
0.276812 9.96314 1.29045 0.0466972 -0.995976 0.0764946 119 137 138
0.360561 9.99277 1.33476 0.099735 -0.977555 0.185579 109 128 127
0.473366 10.0179 1.27737 -0.376006 -0.823014 0.425755 86 109 108
0.616368 9.9128 1.29778 -0.611342 -0.744069 0.269485 123 143 144
0.852188 10.005 1.22843 0.392982 -0.743615 -0.540926 139 156 156
0.97334 9.88827 1.22523 -0.522449 -0.822299 0.22555 109 127 127
1.2143 9.80754 1.24777 -0.583398 -0.535256 -0.610858 69 99 100
1.31572 9.82921 1.23813 -0.676547 -0.483635 -0.555321 81 109 110
1.4539 9.89757 1.18414 0.418667 -0.907521 0.0335141 81 108 111
1.5461 9.92385 1.21367 0.139808 -0.828529 -0.542211 103 128 129
1.67688 10.0185 1.26051 0.307453 -0.756649 -0.577023 117 138 138
1.65723 9.99756 1.26822 0.437124 -0.825768 -0.356414 128 148 148
1.77834 10.0824 1.23147 -0.352486 -0.821355 -0.448475 83 107 108
1.76712 10.1185 1.21229 0.420338 -0.822621 -0.382898 80 104 106
1.88617 10.1004 1.1945 -0.20232 -0.977762 0.0552018 64 90 92
1.96518 10.0919 1.24444 -0.166491 -0.961613 0.218129 65 91 93
2.07212 10.1429 1.19153 -0.67976 -0.650238 -0.339289 109 131 133
2.25378 10.1983 1.18878 -0.140347 -0.988974 0.0472596 135 153 154
2.25428 10.2217 1.18789 0.0259694 -0.959326 -0.281104 135 153 155
2.42688 10.1868 1.19003 -0.0468498 -0.997954 0.0435105 104 122 122
2.42267 10.1879 1.1888 -0.0521476 -0.997974 0.036463 104 121 122
2.50087 10.1529 1.14593 0.235504 -0.971868 0.00309916 114 132 132
2.55682 10.0885 1.20538 0.03739 -0.987425 0.153602 132 150 150
2.78218 10.1048 1.15462 0.149219 -0.724686 0.672729 99 124 128
2.95543 10.2968 1.18218 -0.611987 -0.729758 0.304837 65 95 99
3.05254 10.2692 1.17901 -0.80511 -0.40988 0.428714 68 99 105
3.14409 10.2296 1.17271 -0.883918 -0.305446 0.354108 72 104 109
3.11221 10.1958 1.1143 -0.691281 -0.537092 0.483387 61 94 103
3.18509 10.072 1.17417 -0.79448 -0.358423 -0.490239 80 109 116
3.36256 9.97246 1.06997 -0.115392 -0.638962 -0.760534 93 122 130
3.45898 9.92623 1.10997 -0.770482 -0.557487 -0.309135 141 166 168
4.25569 9.68476 1.00547 -0.319359 -0.947426 -0.0198324 75 103 109
-2.92149 9.68563 1.4211 0.709146 -0.662195 -0.242093 105 123 121
-1.63813 9.79179 1.29183 -0.0092147 -0.995531 -0.0939893 139 158 156
-1.56182 9.8216 1.34337 0.133763 -0.930817 0.340127 134 151 149
-1.02433 9.79496 1.28229 0.817448 -0.534247 -0.215312 89 105 102
-0.936022 9.85454 1.31388 0.209601 -0.946111 -0.246864 119 135 134
-0.855015 9.89383 1.27188 0.149013 -0.988369 -0.030371 115 131 131
-0.704645 9.85506 1.28522 -0.345556 -0.896745 0.276477 117 133 134
-0.456352 9.99552 1.23741 0.632615 -0.718496 -0.289073 100 118 117
-0.362127 10.0473 1.2932 0.670706 -0.740664 0.0396369 92 110 109
-0.142607 10.0673 1.25422 -0.680893 -0.61142 -0.403177 108 129 129
-0.23037 10.0304 1.21554 -0.201325 -0.568688 -0.797535 77 100 101
-0.22969 9.98469 1.2683 -0.647665 -0.525042 -0.552143 91 112 112
-0.134959 10.0133 1.255 -0.527224 -0.6989 -0.483294 113 134 133
-0.0619026 10.0176 1.25107 -0.683888 -0.507826 -0.523842 138 157 158
-0.044686 9.9469 1.25518 -0.667031 -0.591957 -0.45239 146 164 164
0.0468628 9.85792 1.24041 -0.79998 -0.593716 0.0867955 150 169 169
0.125627 9.87322 1.2522 -0.563426 -0.506543 -0.65266 134 151 153
0.28029 9.95949 1.19966 0.00686383 -0.972502 0.232795 80 103 106
0.360609 9.97221 1.24439 0.038073 -0.936806 0.347772 80 103 105
0.460125 9.95652 1.19041 -0.155832 -0.987783 0.000997536 80 105 107
0.537103 9.94346 1.14537 -0.0181397 -0.969175 -0.245706 128 149 151
0.566386 9.94396 1.17306 -0.194004 -0.974627 0.111647 124 145 146
0.541736 9.96411 1.23438 -0.502385 -0.696867 0.511845 92 115 116
0.76237 10.0176 1.17386 0.143408 -0.918754 -0.367867 140 156 155
1.04066 9.92167 1.14207 -0.360132 -0.932606 -0.0234589 127 145 147
1.13918 9.90137 1.18008 -0.0447621 -0.989243 0.139265 82 106 108
1.24025 9.94527 1.13587 0.0847451 -0.832387 -0.547677 74 100 105
1.23998 9.90668 1.15846 -0.409367 -0.837435 0.362106 67 95 98
1.31939 9.90129 1.13188 0.392598 -0.810007 -0.435609 64 93 98
1.65192 9.98981 1.17057 0.101865 -0.979754 -0.172353 79 105 108
1.64278 9.96367 1.07514 0.472485 -0.726579 0.498839 61 91 98
1.76933 10.1464 1.11062 0.437938 -0.894409 0.0907936 60 88 94
1.98663 10.159 1.14347 -0.0870759 -0.984439 -0.152638 102 126 129
2.25471 10.2251 1.08916 -0.169695 -0.96772 -0.186338 102 119 121
2.33738 10.1845 1.14066 -0.123723 -0.984118 0.127298 97 114 116
2.3374 10.1856 1.14127 -0.112046 -0.985901 0.124278 97 115 116
2.72715 10.244 1.09274 0.105349 -0.976621 -0.187386 144 162 167
2.77796 10.1317 1.05471 0.0261487 -0.930512 -0.365327 127 149 153
2.9151 10.2182 1.03301 -0.549739 -0.538911 0.63825 82 110 116
3.02271 10.2511 1.11779 -0.714294 -0.548631 0.434498 62 95 102
3.26605 10.0352 1.0723 -0.199163 -0.620033 -0.758877 61 93 104
3.49855 10.0539 1.0258 0.11019 -0.662076 -0.741292 122 145 149
-2.92938 9.80192 1.25347 0.337835 -0.659706 -0.671309 141 157 156
-2.90351 9.65136 1.30292 -0.523357 -0.711065 -0.469557 126 142 140
-2.45761 9.86335 1.3055 0.553988 -0.788056 -0.26845 118 132 130
-1.70905 9.79811 1.24892 -0.0920953 -0.995069 0.0368373 96 116 115
-1.6331 9.81337 1.21559 0.336894 -0.905285 0.25877 96 118 118
-1.54989 9.80449 1.25637 0.103191 -0.961851 -0.253367 142 160 159
-1.50202 9.82674 1.21349 0.0478126 -0.997088 0.0594137 135 154 154
-1.49541 9.82373 1.21693 -0.0266072 -0.99664 0.0774646 137 154 155
-1.43387 9.84979 1.16533 -0.24568 -0.852627 -0.46116 131 150 150
-1.42696 9.84205 1.16929 -0.426169 -0.669683 -0.608198 134 152 152
-1.32968 9.81946 1.18092 0.269461 -0.878423 -0.39467 137 152 152
-1.24562 9.79296 1.1649 0.519619 -0.759956 -0.390465 105 121 121
-1.25155 9.7803 1.14481 0.622988 -0.65426 -0.428754 100 117 117
-1.00608 9.87207 1.17494 0.241864 -0.967128 -0.078523 72 91 91
-0.934621 9.89695 1.22127 0.111872 -0.993721 0.00179935 87 104 103
-0.859163 9.90896 1.17722 0.132779 -0.986415 -0.0967198 112 128 127
-0.782397 9.9273 1.13355 0.179856 -0.964482 -0.19346 135 150 148
-0.553544 9.95927 1.1757 0.358243 -0.775626 -0.519679 119 133 132
-0.640772 9.91924 1.13316 0.52822 -0.682626 -0.504981 118 132 130
-0.459063 10.0099 1.14071 0.303042 -0.830146 -0.467998 121 137 136
-0.370311 10.0182 1.19849 0.2671 -0.89536 -0.356355 78 98 98
-0.399143 10.0707 1.15545 -0.274838 -0.943721 0.183995 95 113 114
-0.310535 10.1225 1.15712 0.609064 -0.723742 -0.324404 75 97 98
-0.149785 10.0362 1.16573 -0.21179 -0.957811 -0.194278 75 101 103
-0.222959 10.1038 1.12059 -0.188448 -0.83365 0.519149 74 98 100
-0.0531298 10.0696 1.15776 -0.676616 -0.607465 -0.416145 88 114 117
0.0218993 9.97755 1.15897 -0.649571 -0.685283 -0.32931 107 133 135
0.089695 9.92322 1.16229 -0.582201 -0.594909 -0.554189 109 134 137
0.202991 9.96181 1.15375 0.0451438 -0.995901 0.0783781 82 107 110
0.254183 9.95811 1.14611 0.146767 -0.968264 0.202299 72 97 101
0.344257 9.9582 1.142 -0.113467 -0.988168 -0.103194 73 99 103
0.378902 9.96816 1.14893 -0.227366 -0.958708 -0.170834 75 100 104
0.456333 9.95636 1.10305 0.27403 -0.745825 -0.607167 120 142 146
0.562612 10.0099 1.07283 0.0641137 -0.851309 -0.520732 145 163 164
0.668693 10.0331 1.11114 0.271832 -0.793101 -0.545068 136 153 152
0.75099 10.0119 1.07987 0.00925078 -0.924407 -0.381296 105 123 120
0.8611 10.0672 1.12344 0.159905 -0.960344 -0.228408 108 126 123
0.95126 10.1047 1.07633 0.417134 -0.901343 0.116536 109 128 125
1.12968 9.91976 1.08802 -0.42444 -0.686627 -0.59025 128 147 152
1.14166 9.90022 1.08764 -0.547751 -0.83475 0.0562277 122 142 147
1.21975 9.9159 1.04916 -0.358388 -0.669168 -0.650978 109 132 137
1.35394 9.8644 1.03604 -0.844545 -0.360592 -0.395874 61 92 98
2.15936 10.1637 1.04229 -0.66583 -0.608093 0.432311 119 136 138
2.24569 10.1697 0.994755 -0.14953 -0.975255 0.162843 97 115 115
2.6916 10.148 0.963068 -0.651907 -0.511263 0.560025 129 149 151
3.25085 10.1976 0.902972 -0.332489 -0.663971 -0.669771 83 114 124
3.39266 10.1702 0.960022 0.077462 -0.669972 -0.738334 64 98 104
3.4952 10.1591 0.923767 -0.108063 -0.924741 -0.364933 77 106 112
-3.11801 9.67322 1.23253 -0.049482 -0.986038 -0.159002 97 115 115
-3.12387 9.77354 1.19544 -0.506678 -0.650536 -0.565756 87 106 106
-1.70902 9.7715 1.16739 -0.135809 -0.945057 0.29736 70 93 93
-1.62928 9.77636 1.1305 0.172877 -0.947102 0.27039 64 90 93
-1.56095 9.78907 1.0837 0.282851 -0.958754 0.0280439 61 88 91
-1.55477 9.79285 1.08622 0.293646 -0.955815 0.0138181 62 89 92
-1.57049 9.85952 1.16683 -0.185431 -0.889638 -0.417325 89 113 114
-1.48626 9.79193 1.12934 -0.191688 -0.956906 -0.218142 91 114 116
-1.47998 9.78795 1.13294 -0.197662 -0.960192 -0.197387 95 118 120
-1.43883 9.88739 1.07698 -0.458586 -0.681899 -0.569836 77 102 104
-1.43561 9.89087 1.08046 -0.487292 -0.689233 -0.536195 79 104 106
-1.34556 9.84276 1.09445 0.296798 -0.748447 -0.593075 92 113 114
-1.34501 9.83914 1.09056 0.107877 -0.837755 -0.535284 89 111 112
-1.34932 9.79678 1.11483 0.0104437 -0.953398 -0.301535 106 126 126
-1.24601 9.79149 1.0748 0.250392 -0.94895 -0.191826 67 88 89
-1.1678 9.80156 1.12457 0.218774 -0.97469 -0.0460062 67 86 87
-1.07808 9.8286 1.12434 0.220169 -0.968854 -0.113344 69 89 90
-1.01737 9.88807 1.0779 0.212875 -0.9196 -0.330181 96 115 118
-0.933982 9.89467 1.13216 0.2872 -0.919467 -0.268509 104 121 121
-0.859252 9.91811 1.08708 0.0609765 -0.983924 -0.167857 133 149 148
-0.788751 9.95989 1.04596 0.320059 -0.872741 -0.368626 107 123 122
-0.717731 9.91126 1.08668 0.252857 -0.9169 -0.308802 107 121 120
-0.638374 9.93621 1.03619 0.301003 -0.948549 0.0982463 93 108 107
-0.384906 10.0502 1.06373 -0.215455 -0.920593 0.32571 140 157 157
-0.141194 10.1143 1.06998 0.60342 -0.797224 0.0178602 71 99 104
-0.0690183 10.0799 1.07756 -0.464478 -0.716798 0.520059 66 96 101
-0.00743309 9.96593 1.07665 -0.780045 -0.474255 0.40818 67 99 105
0.0915507 10.019 1.06692 -0.683906 -0.601261 -0.413229 67 99 105
0.0905588 10.0311 1.07016 -0.693421 -0.605686 -0.390272 68 99 105
0.191473 10.0025 1.06556 -0.561765 -0.700925 -0.43946 66 96 102
0.287502 9.97604 1.06216 -0.557998 -0.731516 0.39182 77 105 111
0.322593 10.0003 0.976231 0.121715 -0.950451 -0.286058 99 128 133
0.376089 9.96412 1.05839 -0.0913399 -0.990392 -0.103832 110 136 140
0.425314 9.95523 0.982365 -0.644658 -0.513205 -0.566601 147 170 170
0.670955 10.1065 1.0074 0.261299 -0.82051 -0.508416 105 123 122
0.86376 10.101 1.02368 0.0246555 -0.987013 -0.158736 81 99 97
1.00962 10.0514 1.02699 0.10276 -0.960456 -0.258775 117 135 134
1.31176 9.88388 0.943467 -0.442153 -0.543655 -0.713401 67 94 101
1.47558 9.99118 0.91869 -0.402888 -0.540994 -0.738246 66 96 106
1.6472 9.90698 0.95991 0.584483 -0.683008 -0.43804 57 86 96
1.80021 9.97697 0.963849 -0.592724 -0.714582 0.371552 86 113 119
1.88715 9.95463 0.913916 0.0963218 -0.910181 0.402856 94 119 124
2.00934 10.0906 0.945251 0.0365331 -0.94955 0.311481 125 147 150
2.12366 10.0854 0.880651 -0.0216563 -0.809382 -0.586883 129 149 149
2.24609 10.1569 0.898458 -0.117511 -0.984443 0.130625 117 136 136
2.33751 10.1597 0.947214 -0.0925199 -0.992496 0.0799463 95 114 113
2.42052 10.1351 0.899803 -0.154167 -0.975885 0.154536 131 151 150
2.50178 10.1081 0.854437 -0.777771 -0.612867 0.139521 135 154 154
3.49269 10.1932 0.822346 -0.656779 -0.678194 -0.329688 64 91 97
-4.68383 8.80753 1.09172 0.806763 -0.401832 -0.433203 148 164 162
-3.21592 9.85428 1.12737 0.651273 -0.688781 -0.318472 81 100 100
-3.02765 9.86967 1.10487 -0.468029 -0.701421 -0.537547 63 87 90
-2.92102 9.84204 1.12635 -0.264329 -0.666029 -0.697521 117 138 139
-2.9308 9.87529 1.16383 -0.189648 -0.811302 -0.553012 122 140 141
-2.85188 9.80766 1.09949 -0.233554 -0.657623 -0.716229 103 123 126
-2.75445 9.77503 1.10253 0.0818128 -0.592476 -0.801423 106 124 126
-1.71068 9.78917 0.991783 0.315229 -0.947946 0.0450504 116 134 137
-1.34574 9.89324 1.00234 -0.501613 -0.646605 -0.574705 57 84 89
-1.34528 9.88248 0.999938 -0.488214 -0.640131 -0.593194 57 83 89
-1.25106 9.86537 1.05092 -0.383763 -0.65707 -0.648833 65 87 89
-1.10229 9.86202 1.02713 0.322085 -0.856159 -0.404046 86 107 110
-0.996901 9.90704 1.03399 -0.699014 -0.568343 -0.434011 128 147 148
-0.996901 9.90704 1.03399 -0.699014 -0.568343 -0.434011 128 147 148
-0.996901 9.90704 1.03399 -0.699014 -0.568343 -0.434011 128 147 148
-0.93857 9.93777 1.03838 0.0890519 -0.960104 -0.265084 135 152 153
-0.876495 9.90078 0.992905 0.157605 -0.921349 -0.355355 115 131 131
-0.794925 9.93836 0.942186 -0.135016 -0.9712 -0.196319 94 109 110
-0.715627 9.92674 0.991326 0.0367865 -0.994959 -0.0932931 80 96 95
-0.636493 9.94909 0.943522 0.162414 -0.982788 0.0880301 87 103 103
-0.475433 9.99326 0.941413 -0.124945 -0.859014 0.496472 138 154 153
-0.546393 10.0287 1.02324 -0.155708 -0.987801 -0.00205998 114 129 128
-0.455438 10.1244 1.00815 -0.681399 -0.560554 0.470611 135 150 148
-0.114679 10.023 0.985517 -0.0196651 -0.844381 0.535382 75 104 111
0.219125 10.0626 0.892793 0.331066 -0.700418 -0.632305 65 95 105
0.134514 9.97044 0.954899 0.490231 -0.742656 -0.456219 60 93 103
0.401668 9.99152 0.899863 -0.510945 -0.747488 -0.424496 108 132 135
0.51483 10.0895 0.879692 0.483924 -0.810173 -0.330813 130 150 150
0.581059 10.0575 0.913944 -0.835566 -0.543978 0.0769275 137 154 153
0.705865 10.2365 0.888079 0.494879 -0.857235 0.142278 119 136 135
0.705865 10.2365 0.888079 0.494879 -0.857235 0.142278 119 136 135
0.834508 10.1347 0.901323 -0.617673 -0.526081 -0.584568 92 110 110
0.917487 10.0875 0.939413 -0.641851 -0.523854 -0.560003 98 118 117
1.0144 10.1256 0.876054 -0.850473 -0.517413 -0.0947583 136 156 156
1.0773 10.131 0.883912 -0.0422089 -0.993536 -0.105379 137 156 156
1.23565 10.1007 0.868557 -0.268325 -0.962072 0.0491828 85 107 109
1.13092 10.0336 0.922764 -0.792941 -0.522391 -0.313612 137 155 156
1.16409 10.1163 0.835289 -0.21641 -0.970379 -0.107381 93 114 115
1.15465 10.1028 0.839403 -0.23533 -0.936196 0.26107 97 118 119
1.45086 10.2146 0.869381 -0.485734 -0.871052 0.0730151 65 94 100
1.42043 10.1245 0.883642 -0.158906 -0.885941 0.435727 63 92 98
1.50766 10.1193 0.857334 -0.702851 -0.707422 -0.0745295 81 108 116
1.50053 10.1345 0.857184 -0.703836 -0.708394 -0.0528506 78 106 114
1.8277 10.0309 0.856304 0.111851 -0.98951 -0.0914251 67 93 99
1.92674 10.0459 0.800844 -0.469132 -0.869854 0.152546 73 97 102
2.0124 10.0906 0.84638 0.310683 -0.946399 0.088344 83 108 111
2.09309 10.0418 0.784167 -0.775919 -0.519895 0.357295 98 120 122
2.24443 10.1304 0.802916 -0.144317 -0.981905 0.122617 119 138 138
2.32828 10.1274 0.852476 -0.160948 -0.975698 0.148694 123 141 140
2.33413 10.126 0.85128 -0.158687 -0.976908 0.143068 125 143 142
2.53289 10.0086 0.759795 -0.393724 -0.917532 -0.0558225 114 134 134
2.7761 10.233 0.76064 0.0146702 -0.905015 -0.425127 77 101 106
-4.57159 8.95936 1.0653 0.461413 -0.436189 -0.772552 107 121 120
-4.24374 9.46985 1.07191 -0.332614 -0.640538 -0.692155 90 103 105
-4.24374 9.46985 1.07191 -0.332614 -0.640538 -0.692155 90 103 105
-4.13588 9.63013 1.10738 -0.60446 -0.796577 0.00969375 125 137 136
-3.22217 9.79751 1.03077 0.437164 -0.884101 0.165086 124 141 142
-3.14398 9.86881 0.996189 0.482041 -0.872356 -0.0814307 103 123 126
-2.90076 9.82533 1.04087 -0.469807 -0.698822 -0.539379 60 85 90
-1.78671 9.80144 0.948195 0.205229 -0.961703 0.181681 146 160 162
-1.71127 9.78967 0.903807 0.192774 -0.931087 -0.309702 133 149 151
-1.6297 9.80436 0.952322 0.083507 -0.987052 -0.136946 93 114 118
-1.63088 9.83351 0.950324 0.530706 -0.814542 0.234247 93 113 118
-1.45439 9.83008 0.961127 0.591148 -0.640389 -0.490352 53 79 88
-1.30384 9.81157 0.88688 0.588254 -0.567714 -0.575897 48 75 85
-1.2467 9.93861 0.910469 0.364365 -0.6252 -0.69019 56 83 90
-1.18442 9.99734 0.897192 -0.133734 -0.902925 -0.408462 71 96 101
-1.10246 9.90342 0.93018 0.260466 -0.874799 -0.408515 106 127 130
-1.01401 9.93346 0.893471 0.255872 -0.858767 -0.443901 129 147 148
-0.924741 9.92703 0.861158 -0.0104215 -0.938928 -0.343956 138 154 154
-0.794608 9.94405 0.852578 0.0384081 -0.997658 -0.0566049 120 135 135
-0.717623 9.9403 0.897508 0.00313501 -0.999896 -0.0140964 90 106 106
-0.639446 9.95022 0.851913 0.0130795 -0.999914 0.000624388 119 136 135
-0.634247 9.95245 0.854099 -0.0141362 -0.999846 0.0104028 119 136 136
-0.479279 9.95603 0.853929 0.088064 -0.995978 0.0165026 154 170 171
-0.555566 9.97031 0.897439 -0.0401039 -0.969562 0.241541 123 140 140
-0.15837 9.96689 0.855383 -0.40735 -0.900538 0.151979 65 93 99
-0.0666018 9.94574 0.806431 0.132888 -0.975657 -0.174454 83 112 119
0.027794 9.9272 0.871285 0.414499 -0.835353 0.361075 72 102 112
0.134021 10.0274 0.851837 0.491422 -0.747109 -0.447586 71 101 111
0.313659 10.1018 0.837742 -0.781108 -0.587743 -0.210783 70 98 105
0.305086 10.1068 0.840284 0.161481 -0.971063 -0.175956 67 95 102
0.395345 10.0855 0.788815 -0.588421 -0.558743 -0.584437 72 97 101
0.396639 10.0325 0.798611 0.379309 -0.783444 -0.492281 71 96 101
0.504607 10.0796 0.867257 -0.413209 -0.910419 0.0198924 121 141 142
0.695021 10.173 0.785934 0.0992632 -0.994288 -0.0392109 116 133 133
0.763537 10.1755 0.83689 0.0065256 -0.998092 -0.0613933 113 130 130
0.847229 10.1809 0.78877 0.0129086 -0.993129 -0.116315 128 144 144
0.932488 10.1788 0.837155 -0.344582 -0.884257 -0.315201 128 146 146
1.07675 10.1384 0.788256 -0.0894605 -0.960599 -0.263145 93 112 114
1.25215 10.1989 0.759398 0.186708 -0.90656 -0.378535 67 92 95
1.35043 10.1946 0.816945 0.0905075 -0.973073 -0.211986 66 92 97
1.42315 10.1573 0.780232 0.386748 -0.801935 -0.45533 90 116 121
1.41832 10.1696 0.779502 0.410685 -0.810965 -0.416742 88 114 119
1.51277 10.1966 0.726823 -0.265595 -0.941477 -0.207558 131 151 153
1.66548 10.0429 0.709446 0.259898 -0.770375 -0.582215 138 157 159
1.7733 10.0403 0.732177 -0.355051 -0.790526 -0.499007 117 138 141
1.97224 10.0401 0.701097 -0.758754 -0.545075 -0.356631 94 116 119
1.97263 10.0964 0.708103 -0.752629 -0.533083 -0.386486 87 109 113
1.97263 10.0964 0.708103 -0.752629 -0.533083 -0.386486 88 110 114
2.09274 10.0127 0.691936 -0.335256 -0.902241 0.271227 127 148 148
2.17544 10.0146 0.744316 -0.832603 -0.503857 0.23 131 150 150
2.26799 10.0094 0.731328 -0.669529 -0.683766 -0.290163 131 151 151
2.37028 10.1288 0.717352 -0.529277 -0.533121 0.660036 118 138 138
2.43516 10.0112 0.679054 -0.457527 -0.886344 0.0711574 113 135 135
2.67891 10.1271 0.691774 -0.0211004 -0.810315 -0.585614 120 141 144
2.87296 10.2434 0.703681 -0.128233 -0.923133 -0.362466 105 128 133
2.97915 10.1901 0.696667 -0.635366 -0.719472 -0.280482 141 162 166
3.86513 10.2522 0.572807 -0.9279 -0.306146 0.212782 93 114 116
3.95918 9.38606 0.526037 -0.144228 -0.704028 0.695372 110 129 132
-6.68753 8.63307 1.04175 0.991315 -0.0829153 -0.102075 144 161 160
-6.36887 9.01849 1.07697 -0.421291 -0.901986 0.0945232 82 103 101
-6.30585 8.99257 1.05504 -0.360667 -0.925481 -0.115778 89 108 106
-4.7266 8.80489 1.00109 0.843515 -0.536327 0.0288946 132 145 143
-4.78132 8.78852 0.954137 0.835755 -0.548935 -0.0135644 127 140 139
-4.49351 9.13516 1.01705 0.890389 -0.267599 -0.368237 90 107 105
-3.91989 9.59895 0.95753 0.549495 -0.704085 -0.4498 72 94 98
-3.14637 9.91588 0.939109 -0.523819 -0.770341 0.363576 135 152 153
-3.07133 9.90074 0.896598 -0.0154969 -0.99987 0.00441074 111 130 133
-2.87144 9.94159 0.885432 -0.508003 -0.780779 -0.363755 55 82 91
-2.52292 9.94744 0.869966 -0.290421 -0.932186 -0.216067 119 141 148
-2.59704 9.9435 0.921581 -0.170508 -0.76127 0.625616 85 109 118
-1.78648 9.7799 0.862041 0.0785231 -0.935759 -0.343788 141 156 156
-1.71031 9.79256 0.815768 0.0478719 -0.992246 -0.114703 89 108 110
-1.70295 9.79278 0.820143 0.04803 -0.993261 -0.105481 89 107 110
-1.62918 9.79736 0.865679 0.0575093 -0.987468 -0.146968 82 102 107
-1.55187 9.81137 0.821757 0.232446 -0.968543 -0.0888498 59 82 89
-1.48138 9.85634 0.867538 0.561507 -0.773247 0.294617 55 80 89
-1.39692 9.89014 0.870323 0.593429 -0.649749 -0.475047 50 77 88
-1.40857 9.87248 0.82337 0.394646 -0.897725 0.195818 62 86 95
-1.18252 10.1215 0.794512 -0.00395957 -0.859118 -0.511761 59 84 90
-1.09789 10.0761 0.820274 -0.451724 -0.785113 -0.423724 74 97 101
-0.924751 9.96059 0.769128 -0.22307 -0.968481 -0.110832 100 119 120
-0.790314 9.94801 0.764798 0.10953 -0.993332 -0.0359724 124 141 140
-0.712151 9.94465 0.810406 0.032724 -0.996684 -0.0744968 124 140 139
-0.717288 9.94442 0.807701 0.0317851 -0.99611 -0.0821905 124 141 139
-0.641499 9.95341 0.761232 -0.0254484 -0.98296 -0.182048 156 173 172
-0.47811 9.98229 0.757825 0.196446 -0.957638 -0.210565 115 131 132
-0.557214 9.95211 0.80826 0.0566974 -0.961041 -0.270529 154 170 170
-0.397004 9.97799 0.80852 0.160867 -0.974266 -0.157886 109 129 130
-0.31772 9.98546 0.762247 -0.0491216 -0.998791 0.00187843 76 100 104
-0.240623 9.97855 0.807037 -0.147052 -0.988596 0.0324523 70 97 102
-0.159992 9.99131 0.760559 -0.136804 -0.985422 0.101139 77 104 110
-0.069295 9.97547 0.71234 0.00116761 -0.997061 -0.0765988 132 155 159
0.12545 10.0539 0.758958 0.635482 -0.769419 0.0644731 129 152 159
0.0590854 10.055 0.703728 0.466866 -0.852673 -0.23449 149 167 171
0.0341092 9.93705 0.765233 0.450397 -0.829825 -0.329444 131 153 160
0.221126 10.1278 0.699669 -0.0677113 -0.930459 -0.360087 134 154 159
0.224727 10.1249 0.792122 -0.0349424 -0.995503 -0.0880505 81 107 115
0.313551 10.1245 0.743047 -0.168276 -0.956286 -0.239165 80 104 111
0.395479 10.1401 0.697033 -0.710555 -0.594806 -0.375922 80 102 108
0.488233 10.1113 0.689751 0.113171 -0.840591 -0.529715 77 99 102
0.59286 10.0963 0.745973 0.0873612 -0.994883 0.0507521 93 114 115
0.584699 10.0964 0.747573 0.0890775 -0.994164 0.0608619 91 112 113
0.663257 10.0703 0.703281 -0.0554196 -0.998213 -0.0223577 125 144 143
0.7877 10.1595 0.664092 -0.398009 -0.860556 -0.317855 137 155 153
0.957925 10.2166 0.724912 0.402494 -0.77795 -0.482485 121 138 138
1.05811 10.2574 0.676358 0.143573 -0.92848 -0.342508 119 138 139
1.12212 10.1732 0.725058 -0.508827 -0.463089 -0.725702 87 110 113
1.25195 10.2559 0.663107 0.00105635 -0.927362 -0.374164 91 113 116
1.33797 10.2015 0.718618 0.161621 -0.896909 -0.411623 88 112 117
1.42782 10.2188 0.676401 -0.0352345 -0.981079 -0.190374 126 147 150
1.51361 10.2186 0.62673 -0.314067 -0.948549 -0.0402147 114 131 132
1.77262 10.1 0.633017 0.182674 -0.817015 -0.546916 136 154 155
1.87845 10.1418 0.601723 0.362388 -0.831324 -0.421396 139 156 157
2.07362 9.98339 0.600785 -0.379708 -0.845752 -0.374867 119 137 137
2.17695 10.0083 0.645536 -0.116856 -0.974078 -0.193691 121 141 141
2.25958 9.98354 0.598214 -0.790896 -0.454307 -0.409986 80 102 103
2.36652 9.97027 0.581489 -0.871926 -0.47596 0.114925 72 98 100
2.4795 10.019 0.581017 -0.272807 -0.923826 -0.268556 89 115 117
2.58657 10.1142 0.637052 0.229459 -0.965516 0.122993 141 161 164
2.9545 10.247 0.602623 -0.642586 -0.645516 -0.412786 119 138 140
3.05746 9.99149 0.590665 -0.662131 -0.61599 -0.426777 76 96 96
3.09134 9.87407 0.507365 -0.714931 -0.598467 -0.361541 89 109 111
3.17831 9.97387 0.581309 -0.487417 -0.853357 -0.184951 79 99 99
3.17809 9.97337 0.58139 -0.507267 -0.84164 -0.185262 79 99 99
3.90585 9.15725 0.447294 -0.354383 -0.471233 0.807683 82 103 104
-6.41448 9.0402 0.996501 0.46597 -0.570614 0.676219 70 92 92
-6.2909 8.95214 0.957735 -0.417761 -0.881765 -0.21901 139 156 156
-6.21787 8.96615 1.00063 -0.31154 -0.950091 0.0164235 140 156 155
-4.7855 8.89988 0.859733 0.927077 -0.284706 0.243868 88 100 98
-4.7546 8.97734 0.899655 0.893172 -0.367321 -0.259461 74 87 86
-4.44436 9.22421 0.843302 0.605408 -0.720401 -0.338384 126 139 140
-4.47335 9.1996 0.9271 0.812571 -0.579335 -0.064029 130 143 143
-4.4149 9.29323 0.92729 0.705934 -0.707763 0.0269906 111 126 127
-3.98929 9.58302 0.873157 0.880402 -0.406684 0.243929 64 86 94
-3.38562 9.82465 0.866989 -0.143881 -0.901222 0.408776 91 108 106
-2.87989 9.99221 0.798644 -0.388948 -0.888233 0.244462 65 90 100
-2.79654 9.87603 0.849498 -0.499 -0.771802 -0.394108 63 89 100
-1.86854 9.80189 0.726264 0.167128 -0.977174 -0.131142 109 125 125
-1.7855 9.79084 0.774118 0.0677542 -0.997701 0.00140898 97 115 116
-1.70959 9.78231 0.729891 -0.648433 -0.744283 -0.159928 65 86 89
-1.70227 9.78213 0.734307 -0.661478 -0.738466 -0.130821 64 86 89
-1.71013 9.79769 0.730242 0.0641711 -0.990545 0.121252 63 84 86
-1.62626 9.80266 0.776257 0.0613674 -0.995621 -0.0705203 60 81 86
-1.63344 9.80234 0.771922 0.0434752 -0.994909 -0.0909214 60 82 86
-1.5532 9.81945 0.733182 0.103698 -0.968177 -0.227774 79 100 105
-1.4735 9.82825 0.777834 0.150127 -0.986257 0.0689845 77 99 106
-1.48281 9.84801 0.691799 0.423356 -0.764133 -0.486693 119 138 142
-1.40707 9.86203 0.734983 0.376598 -0.874679 -0.305141 116 135 140
-1.28042 10.1222 0.74955 -0.0898125 -0.927669 -0.362441 81 102 109
-1.0122 10.0982 0.748309 -0.573315 -0.72532 0.381079 75 97 100
-0.837373 9.95081 0.687703 0.066886 -0.991206 0.114177 132 151 150
-0.722791 9.95246 0.717302 0.0630241 -0.99748 -0.0325836 154 171 169
-0.642736 9.95638 0.671652 0.102951 -0.991394 -0.0808654 134 151 150
-0.562495 9.97156 0.706548 0.194379 -0.951523 -0.238372 125 142 141
-0.462113 9.96294 0.637658 0.232121 -0.971186 0.0540177 135 153 153
-0.394343 10.0006 0.715841 -0.0561481 -0.991207 -0.119814 91 111 113
-0.307069 10.0949 0.660345 -0.448006 -0.575009 -0.684584 92 113 115
-0.238207 9.98733 0.71608 -0.105216 -0.980326 -0.167004 75 101 106
-0.158191 9.99466 0.669888 0.103027 -0.941123 -0.321984 120 143 146
-0.0232879 10.022 0.656143 0.2971 -0.952562 -0.0660181 147 164 165
0.139101 10.1227 0.648338 0.52638 -0.762563 -0.376062 142 159 161
0.220623 10.1259 0.602314 0.211447 -0.976921 -0.0302617 135 151 151
0.304057 10.1458 0.65138 -0.0396051 -0.944129 -0.327189 129 148 151
0.392044 10.1567 0.60163 -0.125802 -0.947482 -0.294026 126 144 147
0.475921 10.168 0.593069 -0.777448 -0.561098 -0.284154 108 126 128
0.586637 10.1174 0.650552 -0.0625751 -0.994865 -0.0795495 105 125 127
0.673316 10.1434 0.598302 -0.0329506 -0.91366 -0.405141 128 148 147
0.783387 10.1779 0.566856 0.447125 -0.790169 -0.41918 96 116 116
0.871871 10.1899 0.637221 0.425602 -0.8101 -0.403239 112 129 129
0.952933 10.1949 0.613162 0.402506 -0.905842 -0.132062 112 130 131
1.0552 10.2792 0.570974 0.0954056 -0.990502 -0.0990114 129 148 149
1.14613 10.2549 0.621411 -0.188615 -0.934069 -0.303216 124 144 146
1.25903 10.2801 0.551796 -0.0341787 -0.990041 -0.136569 126 145 146
1.34626 10.2732 0.600961 0.0128593 -0.961664 0.273927 113 133 135
1.4355 10.2624 0.573373 -0.0652086 -0.970407 -0.232505 113 132 133
1.70816 10.2989 0.520218 -0.0988926 -0.981576 -0.163489 85 103 103
1.79771 10.2991 0.567418 -0.616325 -0.694528 -0.371179 116 133 133
1.97034 10.1258 0.57171 0.2738 -0.934709 -0.226613 138 154 155
2.15985 9.97223 0.551864 -0.0345957 -0.964672 -0.261172 99 118 118
2.50336 10.0231 0.473193 -0.470495 -0.847346 0.246252 130 153 156
2.58066 10.0094 0.530564 0.467321 -0.754592 0.460654 114 137 139
3.77686 10.1854 0.455878 -0.969 -0.242935 0.0449689 140 160 160
-6.72974 7.74153 0.846335 -0.327222 -0.944194 -0.0377331 145 159 160
-6.41309 9.03764 0.905936 -0.475171 -0.822257 -0.31322 128 144 146
-6.20347 8.96316 0.875687 -0.332017 -0.93347 0.135642 104 118 115
-4.71286 8.91817 0.829635 0.964576 -0.255354 0.0662404 75 89 88
-4.64486 9.05409 0.82994 0.501294 -0.662705 -0.556351 95 108 108
-4.52878 9.13638 0.797513 -0.0434051 -0.650213 -0.758511 135 146 146
-4.43664 9.27836 0.78042 0.472506 -0.868932 -0.147295 85 99 101
-4.28361 9.36653 0.753204 0.697754 -0.654728 -0.290638 61 82 87
-4.23655 9.50894 0.77242 0.779895 -0.471883 -0.411206 60 83 91
-2.95301 9.99034 0.752803 0.0851436 -0.959586 -0.268227 66 89 95
-2.88563 10.0184 0.715406 -0.199354 -0.940529 0.275071 100 123 129
-1.86419 9.79295 0.644434 0.421796 -0.814522 0.3983 101 116 116
-1.86908 9.82403 0.635403 -0.392491 -0.876089 -0.280034 107 121 122
-1.7854 9.78826 0.68711 0.0639943 -0.917856 0.391722 73 91 92
-1.62913 9.81655 0.688657 0.222207 -0.945366 -0.238554 76 97 101
-1.54678 9.84058 0.646643 0.13971 -0.941008 -0.308197 124 141 144
-1.55298 9.84012 0.642694 0.139301 -0.927733 -0.346274 123 141 143
-1.47803 9.85176 0.690793 0.428632 -0.769657 -0.473183 121 139 143
-1.46361 9.85727 0.599636 -0.267721 -0.803674 -0.531445 119 134 134
-1.37389 9.88823 0.661192 0.719771 -0.617366 0.317473 134 151 153
-1.37904 9.88953 0.663028 0.707581 -0.611251 0.354545 134 151 153
-1.15737 10.1667 0.640412 -0.564421 -0.699321 -0.43861 111 130 133
-1.07928 10.0702 0.644769 -0.566597 -0.695795 -0.441404 89 109 112
-0.9921 10.071 0.664953 -0.667164 -0.735032 0.120918 80 101 104
-0.983632 10.0551 0.637166 -0.655562 -0.755001 -0.0145204 90 110 112
-0.916298 10.0402 0.660499 -0.650352 -0.689352 -0.319118 101 121 122
-0.907663 9.99893 0.63599 -0.332848 -0.928993 0.161815 120 139 140
-0.723143 9.95099 0.627364 0.0880927 -0.989407 0.115385 136 155 154
-0.641355 9.97945 0.577505 0.12111 -0.992556 -0.0128772 101 121 121
-0.568588 10.0131 0.625176 0.541539 -0.719502 -0.434801 130 149 147
-0.24479 10.0197 0.615913 -0.391643 -0.87448 -0.286183 107 128 130
-0.22992 10.1575 0.532311 -0.576872 -0.578189 -0.576989 128 145 145
-0.156908 10.037 0.571079 -0.483649 -0.801409 -0.351891 128 146 146
-0.0128719 10.0818 0.548218 0.390486 -0.901418 -0.186994 104 121 120
0.0627431 10.0712 0.601806 0.308222 -0.949787 0.0538911 115 130 130
0.218385 10.1352 0.501134 0.275183 -0.960778 -0.0343412 95 112 111
0.140948 10.0938 0.552357 0.42688 -0.904303 -0.00308156 95 111 110
0.304949 10.1501 0.553096 0.0676713 -0.982777 -0.171961 132 149 149
0.391116 10.1662 0.50481 0.0689422 -0.984496 -0.161293 132 149 148
0.591727 10.1603 0.549711 -0.0912661 -0.91054 -0.403221 114 133 134
0.689997 10.1842 0.498835 0.319025 -0.86446 -0.3885 96 115 116
0.783959 10.1882 0.560599 0.467977 -0.796747 -0.38235 94 114 114
0.871306 10.1668 0.506583 -0.671799 -0.556678 -0.488668 72 92 94
0.85831 10.1631 0.543225 0.412971 -0.858417 -0.304263 79 99 100
1.25853 10.3187 0.45173 -0.227614 -0.806058 -0.546318 133 150 149
1.45662 10.2944 0.519563 -0.10684 -0.969638 -0.219974 102 120 121
1.53113 10.3039 0.426325 -0.220366 -0.954946 -0.19879 109 127 128
1.62022 10.3149 0.471587 -0.115771 -0.98143 -0.152947 83 101 102
1.84284 10.2198 0.453653 -0.308677 -0.83706 -0.451718 121 139 138
1.99257 10.2681 0.446268 -0.104833 -0.980101 -0.168558 125 142 141
1.96534 10.2003 0.457061 -0.553002 -0.685995 -0.472864 126 142 141
2.06003 10.2459 0.400391 -0.336277 -0.664081 -0.667768 120 139 137
2.12601 9.96486 0.45072 -0.110787 -0.983375 -0.143878 136 155 154
2.42752 10.0258 0.380528 -0.294551 -0.939501 0.174865 144 164 166
2.50715 10.0097 0.432552 0.442666 -0.895534 0.0454569 140 162 165
2.5892 10.056 0.413237 0.372657 -0.924754 -0.0771832 120 141 143
3.09614 9.98259 0.399063 -0.914754 -0.345814 -0.208896 132 150 152
-6.50376 9.05465 0.863929 -0.499333 -0.83675 -0.224759 114 132 136
-6.26769 8.95702 0.812115 -0.110942 -0.951551 0.286779 119 133 131
-6.31151 9.03338 0.821462 -0.440502 -0.801784 -0.403856 123 137 135
-6.1769 8.91621 0.771343 -0.264284 -0.953296 0.146221 109 125 122
-6.09187 8.90381 0.82554 -0.504979 -0.807482 -0.304908 65 82 80
-5.42583 8.62241 0.72842 0.666212 -0.577819 -0.471474 88 111 119
-5.34027 8.67336 0.731633 0.819486 -0.563795 -0.102849 115 137 146
-4.83167 8.97851 0.732169 0.601966 -0.726405 -0.331621 109 121 120
-4.74083 9.04762 0.732083 0.691176 -0.467149 -0.551404 117 128 127
-4.6766 9.13886 0.723473 0.179128 -0.906032 -0.38343 138 149 149
-4.59965 9.2159 0.723465 0.319043 -0.578943 -0.750358 124 135 136
-4.53843 9.25157 0.708556 0.402882 -0.668494 -0.625142 87 100 101
-4.43414 9.29864 0.693111 0.41855 -0.862059 -0.285779 63 80 84
-4.36417 9.32412 0.747248 0.47959 -0.858668 0.180784 62 81 85
-4.22922 9.59123 0.675083 0.691465 -0.605834 -0.393498 115 135 139
-4.11893 9.62669 0.715609 0.004103 -0.66262 -0.748945 101 123 128
-3.74219 9.76177 0.643025 -0.0458204 -0.670348 -0.740631 80 98 101
-3.19566 9.92374 0.66632 -0.572125 -0.818373 0.0542044 73 90 91
-3.12856 9.95807 0.618859 -0.580363 -0.807487 0.105561 76 95 97
-2.96215 10.0416 0.669254 -0.214894 -0.932291 0.290955 97 118 123
-2.79013 9.93603 0.677424 0.3604 -0.886857 -0.289132 148 168 172
-2.71452 9.96264 0.629358 -0.281593 -0.957363 0.0645143 157 174 175
-2.17252 9.75595 0.59074 -0.269832 -0.844069 -0.463399 140 157 156
-2.10316 9.77338 0.545182 -0.30503 -0.854401 -0.42066 98 115 114
-2.03427 9.80901 0.581831 -0.110825 -0.750534 -0.651472 105 120 119
-1.7278 9.87689 0.546901 0.000750638 -0.931335 -0.364163 114 130 131
-1.74582 9.82982 0.578993 0.241335 -0.881044 -0.406841 103 120 120
-1.62714 9.83453 0.59604 0.263629 -0.938441 -0.223223 109 127 129
-1.55237 9.87322 0.54945 0.0629091 -0.927714 -0.367952 114 130 129
-1.55068 9.88158 0.55464 -0.271056 -0.681903 -0.679365 121 137 137
-1.54652 9.85756 0.555588 0.67992 -0.727091 0.0951165 115 131 131
-1.25645 10.2269 0.556616 -0.0458242 -0.966827 0.251288 136 153 151
-1.08992 10.2537 0.533461 -0.544107 -0.654727 -0.524671 145 161 160
-1.09682 10.1584 0.550451 -0.611418 -0.634648 -0.472642 142 158 157
-1.00363 10.0776 0.550565 -0.581797 -0.678557 -0.448412 129 146 145
-0.976988 10.1314 0.48428 -0.626776 -0.697529 -0.347283 144 160 157
-0.901143 10.0961 0.533361 -0.229831 -0.597927 -0.767894 131 148 147
-0.907869 10.0416 0.544562 -0.447302 -0.713216 -0.53967 126 143 142
-0.850575 10.0718 0.561138 -0.496331 -0.868124 0.00398331 138 156 156
-0.850757 10.0686 0.468489 -0.349756 -0.669017 -0.65581 122 140 139
-0.6877 9.9487 0.455725 0.239156 -0.970429 -0.0327344 79 100 102
-0.721085 9.96641 0.534397 0.207468 -0.956412 0.205506 90 111 111
-0.565831 10.0038 0.532293 0.646504 -0.735631 0.202189 97 118 119
-0.444292 10.1435 0.539249 -0.0528371 -0.703201 -0.709026 147 165 166
-0.198749 10.2158 0.490005 -0.569201 -0.573726 -0.588938 133 151 151
-0.237009 10.1093 0.512388 -0.553893 -0.525764 -0.64558 135 151 152
-0.0749419 10.1217 0.497041 0.0516565 -0.862595 -0.503252 103 121 119
0.0167709 10.1611 0.428124 -0.394064 -0.869381 -0.298145 95 113 111
0.0671365 10.0977 0.494695 0.258189 -0.965006 -0.0458482 75 94 92
0.136382 10.1056 0.44782 0.497306 -0.86186 -0.0994243 79 99 96
0.292948 10.1716 0.442741 0.107461 -0.99125 -0.0766491 110 127 125
0.401543 10.1842 0.416226 0.111777 -0.986703 -0.117999 113 129 127
0.512273 10.19 0.472032 0.169012 -0.970305 -0.17304 139 156 156
0.596266 10.2197 0.424658 0.303106 -0.852805 -0.425266 136 153 153
0.777738 10.1911 0.466893 -0.219329 -0.903953 -0.367101 79 99 100
0.872028 10.2115 0.405953 -0.662011 -0.554896 -0.503818 92 111 113
1.0258 10.3139 0.421836 0.054731 -0.703171 -0.708911 108 128 129
1.15296 10.3611 0.41541 -0.442124 -0.656322 -0.611366 112 131 131
1.25798 10.357 0.351299 -0.570866 -0.64106 -0.512987 96 116 115
1.35775 10.3533 0.363103 -0.476255 -0.717535 -0.508257 122 141 140
1.44229 10.2859 0.385973 -0.179723 -0.952662 -0.245226 139 158 158
1.52736 10.3023 0.338515 0.0361413 -0.951695 -0.304911 140 158 159
1.61851 10.2944 0.374681 -0.0902026 -0.989567 -0.112346 117 136 136
1.71582 10.2119 0.310912 -0.421808 -0.906683 0.00181697 139 158 158
1.73547 10.2854 0.396392 0.331698 -0.821862 0.463162 126 144 143
1.8293 10.2912 0.329737 -0.447612 -0.711423 0.541775 128 148 147
1.80526 10.2199 0.352183 -0.844945 -0.51236 -0.153477 132 152 151
1.81499 10.2708 0.345437 0.0906024 -0.975088 0.20247 133 152 151
1.90542 10.302 0.390642 0.0204851 -0.994634 -0.101405 120 139 138
2.05927 10.2409 0.300598 -0.497456 -0.867213 0.0218951 79 101 102
1.99494 10.3041 0.339805 -0.172419 -0.984291 -0.0379811 93 114 114
2.13516 10.2008 0.351479 -0.333874 -0.666999 -0.666064 114 134 134
2.57503 10.0432 0.314272 0.200105 -0.975854 -0.0875605 97 116 116
4.22359 9.02189 0.106655 -0.33902 -0.378052 0.861477 93 119 127
-4.75645 9.14311 0.632297 0.694707 -0.471965 -0.542798 134 145 143
-4.66264 9.19044 0.63278 0.698745 -0.606382 -0.379549 117 129 128
-4.57197 9.222 0.633253 0.565928 -0.823728 0.0346019 104 116 117
-4.46663 9.26816 0.60559 0.756603 -0.553434 0.348228 89 104 107
-4.36651 9.36145 0.659874 0.631263 -0.592207 -0.500797 74 93 98
-4.34193 9.47674 0.625024 0.663379 -0.657779 -0.356728 103 122 126
-4.00699 9.7771 0.641682 -0.342287 -0.76097 -0.551149 91 112 115
-3.90111 9.789 0.56427 -0.343742 -0.760459 -0.550947 100 119 121
-3.53039 9.75409 0.54935 0.889624 -0.419448 0.180647 136 151 150
-3.31679 9.86894 0.600781 -0.0121003 -0.758667 0.651366 114 129 127
-3.22444 9.90569 0.605889 0.609404 -0.678224 0.410657 93 110 110
-3.01217 9.94259 0.545086 0.26033 -0.786765 0.559669 134 152 154
-2.90492 9.9283 0.500694 -0.144215 -0.668279 0.729798 122 140 139
-2.72483 10.0317 0.526832 -0.0200752 -0.997376 -0.0695605 126 144 141
-2.17296 9.81205 0.496764 0.649371 -0.698607 -0.300443 95 113 112
-2.18682 9.79668 0.514136 0.520432 -0.84248 -0.139208 109 127 126
-1.64335 9.92284 0.4938 -0.568129 -0.740695 -0.358608 120 134 134
-1.55416 10.0216 0.436228 -0.363936 -0.677947 -0.638701 113 128 127
-1.48073 10.0946 0.453323 -0.173225 -0.884456 -0.43328 88 104 101
-1.32718 10.2195 0.452922 0.614677 -0.672307 -0.412522 90 107 104
-1.23567 10.2302 0.467043 0.304804 -0.88263 0.357854 108 124 121
-1.08423 10.2395 0.395264 -0.638749 -0.705482 -0.307074 125 140 136
