ply
format ascii 1.0
element vertex 719
property float x
property float y
property float z
property float nx
property float ny
property float nz
property uchar diffuse_red
property uchar diffuse_green
property uchar diffuse_blue
end_header
1.17107 -4.55917 2.44424 0.0149677 0.547831 -0.836455 82 100 105
1.15997 -4.53829 2.45814 0.0133227 0.653515 -0.756796 77 98 107
1.15858 -4.53986 2.45794 -0.00221581 0.646636 -0.762795 76 97 106
1.2088 -4.53822 2.45507 0.0600411 0.626892 -0.77679 152 166 169
1.21218 -4.53669 2.45691 -0.0304494 0.642921 -0.765327 153 167 169
1.38613 -4.55915 2.44859 0.0176553 0.406557 -0.913455 92 109 116
2.68264 -4.4801 2.50198 -0.0140037 0.531063 -0.847217 127 137 139
2.77033 -4.48048 2.5016 0.0187604 0.553557 -0.8326 155 164 168
2.77382 -4.48035 2.50145 0.0204123 0.569283 -0.821888 154 164 168
-1.89439 -4.40049 2.20275 0.975848 0.218079 -0.0127796 47 11 3
-1.8786 -4.51983 2.27142 0.953641 0.274243 0.123932 57 23 11
-1.88102 -4.59361 2.32415 0.961453 0.26217 0.0829205 74 29 14
-1.80317 -4.61 2.34187 0.588293 0.54777 -0.594861 51 17 5
-1.74251 -4.58274 2.32102 0.507081 0.561866 -0.653587 55 35 27
-1.0699 -4.61157 2.39548 0.566337 -0.0334269 -0.823496 103 107 107
-1.10247 -4.66233 2.40051 0.188052 0.0272601 -0.981781 93 99 98
-0.99685 -4.64526 2.40893 0.0936931 0.101322 -0.990432 137 142 143
-0.913783 -4.63399 2.39806 -0.0654655 0.204962 -0.976578 82 98 104
-0.824075 -4.58285 2.39463 0.343126 0.169054 -0.923951 114 129 134
-0.591585 -4.59872 2.39052 0.0550004 0.221354 -0.973641 77 100 108
-0.36168 -4.59073 2.4331 -0.0341517 0.322803 -0.94585 111 126 130
-0.303872 -4.5946 2.43341 -0.0270505 0.334154 -0.94213 149 165 166
-0.269674 -4.5843 2.43703 0.0296121 0.397458 -0.917143 146 162 163
-0.218001 -4.58918 2.43947 -0.0443433 0.418363 -0.907197 121 137 139
-0.137251 -4.59156 2.43746 -0.0296203 0.349976 -0.93629 137 151 151
-0.0827029 -4.59218 2.4381 0.0499235 0.3821 -0.922772 135 149 149
-0.0310016 -4.59466 2.44376 0.160752 0.27461 -0.948023 109 120 120
0.0310244 -4.58238 2.44709 -0.265485 0.360543 -0.894162 140 153 154
0.173734 -4.53372 2.40806 -0.122834 0.70218 -0.701324 108 122 126
0.211576 -4.51702 2.42266 -0.0564377 0.738972 -0.671368 115 130 136
0.251211 -4.53888 2.41669 0.457214 0.572127 -0.680901 154 165 166
0.333188 -4.53385 2.41813 0.0557578 0.726457 -0.684947 99 114 116
0.370572 -4.51822 2.4344 -0.0725293 0.822817 -0.563659 150 163 163
0.394051 -4.51804 2.43673 -0.0632216 0.806434 -0.587935 138 149 148
0.435992 -4.52477 2.42303 -0.0469611 0.696565 -0.715955 115 128 129
0.472603 -4.51457 2.44007 -0.0105124 0.747931 -0.663693 87 105 110
0.546559 -4.534 2.426 0.0682438 0.664399 -0.744256 134 148 152
0.600221 -4.52088 2.44695 0.0952688 0.731299 -0.675371 88 107 116
0.583121 -4.51532 2.44126 0.0543917 0.775535 -0.628957 75 94 104
0.653246 -4.54263 2.43411 0.0213421 0.709079 -0.704806 144 157 158
0.689243 -4.52363 2.44883 -0.0593733 0.760254 -0.646907 114 124 125
0.730392 -4.53471 2.43179 -0.0586419 0.741109 -0.668818 132 145 145
0.767286 -4.52538 2.44833 0.0612886 0.676717 -0.733688 104 121 125
0.830203 -4.52058 2.45865 0.0488686 0.698698 -0.713746 63 85 98
0.871394 -4.53504 2.45493 -0.059678 0.746511 -0.662692 77 97 106
0.907993 -4.51447 2.46774 -0.0807363 0.799905 -0.594671 147 161 164
0.947396 -4.53449 2.45257 0.0550915 0.571888 -0.81848 132 143 143
0.987715 -4.52361 2.46988 -0.0496614 0.747872 -0.661983 87 100 100
1.02467 -4.53729 2.45689 0.0428352 0.689638 -0.722887 139 151 150
1.11982 -4.52399 2.47246 0.0377577 0.66736 -0.743778 60 84 96
1.17118 -4.52055 2.47088 -0.0532244 0.755819 -0.652614 91 112 120
1.35762 -4.52661 2.46651 -0.171496 0.331177 -0.927853 101 120 126
1.47715 -4.50455 2.48731 0.213439 0.560451 -0.800212 119 137 143
1.69643 -4.46063 2.47237 0.319581 0.742138 -0.589152 67 91 103
2.63652 -4.45658 2.51524 0.0118686 0.556945 -0.830464 101 116 123
2.67692 -4.43527 2.53032 -0.0451451 0.662928 -0.74732 126 137 139
2.68269 -4.43668 2.53121 -0.0220042 0.674448 -0.737995 131 141 144
2.68034 -4.43602 2.53061 -0.0434663 0.650822 -0.757985 129 139 142
2.7206 -4.45492 2.51427 0.0042093 0.51244 -0.858713 138 147 148
2.76416 -4.43654 2.53036 0.0171774 0.758188 -0.65181 109 117 122
2.76805 -4.44179 2.53375 0.0543713 0.826006 -0.561032 107 115 120
2.81949 -4.45814 2.51684 -0.0142391 0.704302 -0.709757 81 96 107
2.80883 -4.45863 2.51623 0.00162483 0.676925 -0.73605 86 100 109
2.81782 -4.4605 2.51839 -0.00408781 0.717383 -0.696667 82 97 107
-2.08798 -4.31951 2.17077 -0.203419 0.48285 -0.851749 160 105 70
-2.09655 -4.3333 2.17604 -0.230384 0.494606 -0.838027 160 105 70
-2.09655 -4.3333 2.17604 -0.230384 0.494606 -0.838027 160 105 70
-1.96517 -4.19222 2.09296 0.161056 0.936889 0.310324 157 99 52
-1.99658 -4.27694 2.14165 -0.408312 0.912226 0.0335447 155 96 51
-1.89733 -4.4695 2.27652 0.988389 0.150049 -0.0239308 58 24 9
-1.8746 -4.64034 2.39035 0.597378 0.735776 -0.319019 63 19 3
-1.69841 -4.56117 2.34812 -0.232159 0.839449 -0.491352 87 78 76
-1.15335 -4.56658 2.40627 0.51537 0.0706121 -0.854053 102 110 114
-1.08875 -4.55075 2.39025 0.559729 0.277382 -0.780874 120 127 128
-0.93938 -4.54645 2.40701 -0.0708013 0.252688 -0.964954 100 113 116
-0.865437 -4.54108 2.39928 -0.0673585 0.24352 -0.967554 94 112 118
-0.764275 -4.59827 2.42228 0.308092 0.152093 -0.93912 124 132 132
-0.703427 -4.59723 2.41966 0.0611001 0.251192 -0.966007 139 151 151
-0.644653 -4.59604 2.42414 -0.0064419 0.34071 -0.940147 104 121 124
-0.539983 -4.5823 2.42512 0.168576 0.312284 -0.934912 91 110 113
-0.481917 -4.58469 2.42996 0.057324 0.323651 -0.944438 140 152 154
-0.419645 -4.58483 2.43221 0.033596 0.272285 -0.96163 137 150 151
-0.0567046 -4.54923 2.458 0.164942 0.41464 -0.894912 145 156 157
-0.0042765 -4.54405 2.46455 0.0737071 0.38275 -0.920907 119 131 131
0.0954581 -4.53691 2.45217 -0.368394 0.568753 -0.735396 149 161 161
0.136422 -4.5164 2.42227 -0.673409 0.558692 -0.484132 126 141 144
0.172733 -4.51248 2.44311 -0.121775 0.89242 -0.434461 80 97 103
0.293992 -4.51569 2.43167 0.142022 0.796125 -0.588231 80 98 102
0.33234 -4.51265 2.45214 -0.0475685 0.872519 -0.486259 127 143 146
0.429838 -4.51274 2.45638 0.0259898 0.8168 -0.576335 144 155 154
0.508435 -4.50715 2.45957 0.0791344 0.830345 -0.551603 67 90 100
0.582782 -4.50045 2.47797 0.0324161 0.792771 -0.608657 80 101 111
0.653051 -4.51143 2.46565 0.00520212 0.803774 -0.594913 130 141 140
0.689231 -4.49758 2.48161 -0.0615703 0.891537 -0.448743 89 102 103
0.730395 -4.51021 2.46478 0.0637225 0.775989 -0.62752 138 150 151
0.766613 -4.49749 2.48208 0.0822736 0.861646 -0.500797 109 125 127
0.871305 -4.50151 2.48489 -0.0882841 0.866847 -0.490696 70 92 101
0.944604 -4.50945 2.48614 -0.0193834 0.892273 -0.451079 136 145 146
1.02547 -4.49888 2.48389 -0.0197973 0.739888 -0.672439 146 157 157
1.08108 -4.50877 2.48723 -0.186839 0.757726 -0.625254 77 95 103
1.11983 -4.49068 2.50254 0.337308 0.86031 -0.382217 110 130 137
1.15764 -4.49475 2.48398 0.370092 0.71391 -0.594445 69 92 101
1.17083 -4.48897 2.50209 0.364187 0.607914 -0.705555 75 95 103
1.20814 -4.504 2.48545 -0.0889974 0.798137 -0.595867 124 139 145
1.21235 -4.50383 2.48643 -0.0984908 0.820944 -0.562451 128 143 149
1.4372 -4.47885 2.49853 0.0753563 0.56504 -0.821615 86 108 115
2.55451 -4.42469 2.5505 0.0162077 0.885105 -0.46511 149 158 162
2.59599 -4.44156 2.53342 0.0324232 0.731662 -0.680896 113 128 135
2.63583 -4.4224 2.54971 -0.0692154 0.823792 -0.56265 105 117 122
2.72194 -4.42085 2.54826 -0.00228655 0.835557 -0.549399 137 144 147
2.80714 -4.42386 2.55068 0.0233357 0.787761 -0.615539 111 122 128
2.8063 -4.42413 2.55088 0.0429332 0.774221 -0.631457 110 121 128
-2.20081 -4.41482 2.25565 -0.203378 0.477018 -0.855039 77 25 8
-2.0521 -4.27411 2.19454 -0.400384 0.656466 -0.639332 118 50 20
-1.80655 -4.5872 2.38205 -0.277622 0.659325 -0.698725 66 34 21
-1.73878 -4.54241 2.37195 -0.314534 0.871453 -0.376348 99 82 73
-1.22466 -4.56224 2.40289 -0.130941 0.987624 -0.0863294 134 139 142
-1.03938 -4.52443 2.40844 0.0618493 0.266951 -0.961723 126 130 130
-1.00573 -4.5386 2.40813 -0.0800897 0.25842 -0.962707 131 137 137
-0.797775 -4.54537 2.4339 0.0451961 0.48092 -0.875599 127 139 140
-0.741987 -4.55179 2.43673 -0.00870012 0.379582 -0.925117 139 148 149
-0.684506 -4.54976 2.44348 0.0764938 0.279536 -0.957083 127 139 140
-0.632897 -4.54048 2.44262 -0.0769775 0.388255 -0.918331 136 149 149
-0.577778 -4.54734 2.44223 -0.063095 0.389803 -0.918734 145 159 159
-0.511846 -4.53464 2.44401 0.189908 0.326872 -0.925791 133 146 147
-0.45306 -4.53653 2.44778 0.0732825 0.322026 -0.94389 111 125 127
-0.391981 -4.53941 2.45149 -0.0287449 0.328604 -0.94403 150 163 163
-0.332612 -4.5448 2.45086 -0.0503687 0.307532 -0.950204 116 129 129
-0.24335 -4.54191 2.45756 0.000667199 0.327156 -0.94497 145 155 156
-0.186793 -4.54877 2.45986 -0.0692733 0.501493 -0.862384 122 136 138
-0.0350317 -4.5094 2.48117 0.391225 0.449601 -0.802996 120 133 138
0.061414 -4.52506 2.47118 -0.166486 0.487834 -0.856913 109 121 121
0.0973998 -4.50662 2.48857 -0.195273 0.901305 -0.386674 107 117 117
0.133741 -4.51772 2.46837 -0.188399 0.900143 -0.392746 144 157 157
0.243619 -4.51064 2.46464 0.0481335 0.972051 -0.229784 68 88 96
0.391332 -4.50923 2.47787 0.0566425 0.995351 -0.0778957 89 100 101
0.616072 -4.50171 2.48505 0.103653 0.943927 -0.313462 138 151 156
0.600119 -4.50447 2.48586 -0.110261 0.891567 -0.439262 110 126 134
0.730406 -4.49784 2.50221 -0.0998072 0.945898 -0.308732 142 154 155
0.802885 -4.4931 2.50295 0.0153019 0.896783 -0.442205 76 95 102
0.835257 -4.4894 2.50303 0.421805 0.738148 -0.526515 95 114 122
0.871356 -4.48396 2.52226 -0.118748 0.965261 -0.232745 95 111 116
0.907228 -4.4851 2.50032 -0.11458 0.919181 -0.3768 86 101 106
0.951394 -4.49891 2.52534 -0.0790369 0.947531 -0.30974 123 133 134
1.21029 -4.48227 2.53022 0.0163321 0.858198 -0.51306 90 108 114
1.21285 -4.48461 2.52285 0.032885 0.833853 -0.551006 87 106 112
1.47534 -4.46066 2.51463 0.0638212 0.699204 -0.712068 86 103 108
1.47068 -4.45752 2.51311 -0.165896 0.579515 -0.797898 88 105 111
2.17849 -4.45569 2.56489 -0.182804 0.874635 -0.448995 127 138 144
2.59777 -4.41221 2.57093 0.00734237 0.876359 -0.481602 138 144 146
2.67716 -4.4096 2.56884 -0.0261421 0.899439 -0.436264 130 139 143
2.71989 -4.40292 2.59213 -0.101564 0.963746 -0.246736 89 98 103
2.76311 -4.40884 2.56841 0.00418296 0.871893 -0.489679 143 151 154
-2.17501 -4.38788 2.27514 -0.408593 0.655974 -0.634626 71 20 4
-2.18054 -4.39995 2.28989 -0.490047 0.802227 -0.341008 66 19 4
-2.00448 -4.29326 2.21734 0.199299 0.969642 -0.141682 77 18 3
-1.11915 -4.48902 2.41418 0.501694 0.337555 -0.796467 64 73 75
-1.08364 -4.50779 2.41759 0.447728 0.602182 -0.660997 87 95 96
-0.903386 -4.4876 2.41994 -0.176981 0.343086 -0.92248 134 147 148
-0.823995 -4.50083 2.45314 0.150306 0.573132 -0.805561 144 154 155
-0.77198 -4.50519 2.45701 -0.116272 0.55722 -0.822184 105 120 119
-0.768435 -4.45753 2.42777 0.29679 0.382782 -0.874868 122 137 138
-0.712329 -4.50461 2.45614 0.160792 0.423799 -0.89137 129 140 142
-0.604187 -4.49744 2.4624 0.0627685 0.56223 -0.824595 118 130 130
-0.542175 -4.4879 2.45353 -0.0237242 0.513535 -0.857741 136 147 147
-0.366962 -4.5023 2.47386 0.409297 0.169042 -0.896605 137 149 151
-0.303469 -4.49946 2.46809 0.0246753 0.369534 -0.92889 138 150 149
0.0192116 -4.50597 2.48671 -0.0661011 0.538691 -0.839906 113 126 128
1.17294 -4.4733 2.54143 0.136935 0.889803 -0.435314 135 149 151
2.51726 -4.39839 2.61574 -0.0361851 0.999297 -0.00982878 141 145 147
2.55913 -4.40409 2.59329 -0.0618055 0.960587 -0.271022 90 96 98
2.60055 -4.39524 2.6152 -0.0101394 0.994937 -0.0999868 127 130 131
2.63882 -4.40269 2.59236 -0.0270118 0.964962 -0.260997 147 152 153
2.68072 -4.39598 2.61505 0.0264717 0.994439 -0.101929 126 131 135
2.76176 -4.39379 2.61493 -0.0953332 0.968917 -0.228279 121 128 131
-2.08915 -4.61769 2.46609 0.973339 0.219868 0.0653426 64 26 12
-1.88284 -4.5876 2.47341 0.0206057 0.68356 -0.729603 70 28 11
-1.78098 -4.50819 2.41778 -0.109517 0.587662 -0.80166 98 74 62
-0.881482 -4.41167 2.42967 0.50661 0.574426 -0.642948 107 115 116
-0.797561 -4.41308 2.44493 -0.5239 0.506597 -0.684754 138 146 146
-0.585621 -4.45179 2.46165 0.0950935 0.530249 -0.842492 142 153 153
1.10564 -4.47746 2.58258 -0.20184 0.963762 0.174425 108 116 118
2.47491 -4.4057 2.64567 -0.0351626 0.990939 0.129628 100 104 106
2.56185 -4.39666 2.6425 -0.0189521 0.996414 0.0824621 140 141 145
2.64641 -4.39549 2.64262 -0.0178464 0.998219 0.0569153 103 105 108
2.72295 -4.39766 2.64302 0.00385688 0.999941 0.0101282 134 139 141
-2.09902 -4.60142 2.50928 0.479375 0.851407 0.212852 48 14 4
-2.10922 -4.63052 2.5263 0.682754 0.721121 0.117606 57 19 6
-2.08533 -4.63772 2.51056 0.54412 0.831237 -0.113926 86 36 15
-1.96513 -4.63082 2.52329 -0.505526 0.667971 -0.54613 109 54 19
-1.90197 -4.58513 2.52327 -0.547745 0.757559 -0.355077 78 33 11
-1.80166 -4.50172 2.46664 -0.541965 0.719011 -0.435083 109 86 74
-0.858082 -4.40445 2.46528 0.659167 0.751302 0.0323216 146 154 155
-0.622332 -4.43079 2.47332 0.489976 0.433233 -0.756461 139 149 153
-0.638855 -4.4489 2.48251 0.646878 0.29703 -0.702369 125 136 140
-0.578688 -4.40974 2.48776 0.165788 0.750887 -0.639283 110 122 126
-0.3078 -4.44912 2.51509 -0.0743841 0.748806 -0.658602 76 93 101
2.42694 -4.41226 2.67406 -0.0452252 0.964994 0.258344 124 123 122
2.47591 -4.41509 2.70268 -0.121884 0.98278 0.138884 133 134 134
2.54337 -4.41606 2.70151 -0.240907 0.920479 0.307705 70 74 78
2.606 -4.40084 2.67294 0.0578236 0.976833 0.206045 100 101 105
2.65728 -4.4057 2.69964 -0.0817766 0.962439 0.258891 129 129 130
-2.2543 -4.62121 2.54213 0.492971 0.749634 0.44162 55 11 1
-2.24757 -4.62232 2.55688 0.573233 0.779937 -0.2512 54 10 1
-2.10948 -4.63256 2.55906 0.951185 0.305953 0.0404869 56 17 4
-2.0746 -4.64071 2.5576 0.34291 0.936128 0.0779587 102 43 17
-2.02593 -4.64772 2.57879 -0.381557 0.542031 -0.748743 116 55 16
-1.83531 -4.5283 2.5182 -0.555677 0.763406 -0.329293 112 86 72
-1.79242 -4.45689 2.45039 0.111647 0.677626 -0.726883 101 73 60
-1.79242 -4.45689 2.45039 0.111647 0.677626 -0.726883 101 73 60
-1.81111 -4.48964 2.49846 -0.556497 0.771913 -0.307345 115 91 78
-0.893471 -4.38363 2.48161 0.790287 0.442476 -0.423866 126 134 137
-2.07919 -4.65569 2.61556 0.565253 0.777859 0.274635 102 43 17
-2.03742 -4.6468 2.62783 -0.464902 0.633654 -0.618343 112 48 14
-1.99645 -4.6231 2.59341 -0.415462 0.569223 -0.70949 122 61 21
-1.97465 -4.65396 2.61234 -0.554226 0.666946 -0.498012 118 65 29
-1.97185 -4.6472 2.60966 -0.557752 0.673569 -0.484993 118 65 28
-1.74601 -4.42918 2.50059 -0.56254 0.765868 -0.31144 145 139 130
-1.19567 -4.42414 2.51262 -0.363078 0.931397 0.0259482 122 124 123
-1.19567 -4.42414 2.51262 -0.363078 0.931397 0.0259482 122 124 123
-0.854474 -4.36135 2.49073 0.289819 0.820629 -0.492517 93 105 107
-0.846272 -4.34229 2.48972 0.458466 0.835871 -0.301874 82 94 97
2.45359 -4.45855 2.82348 -0.0910857 0.935594 0.341127 123 120 116
2.61927 -4.44649 2.8042 -0.101834 0.943371 0.315723 109 110 108
-2.05959 -4.68244 2.69319 0.253035 0.965461 0.0621186 110 42 12
-1.88185 -4.53648 2.58379 -0.551666 0.764824 -0.332731 99 53 26
-1.73612 -4.42958 2.51037 -0.561022 0.746955 -0.356808 136 133 125
-1.4805 -4.48866 2.59638 -0.304161 0.945846 -0.113412 134 135 133
-1.38004 -4.47694 2.58864 0.646852 0.746464 -0.156122 99 98 96
-1.29703 -4.43622 2.5412 0.761875 0.647654 0.00951229 121 122 119
2.51172 -4.46776 2.85935 -0.0991598 0.948947 0.299445 137 135 134
2.52378 -4.48462 2.87361 -0.117138 0.984222 0.13261 139 137 136
2.82356 -4.48709 2.90954 0.0189358 0.972392 0.232585 110 108 108
-1.9374 -4.56629 2.65846 -0.319252 0.448709 -0.834709 108 45 11
-1.81448 -4.48135 2.58009 -0.556687 0.755688 -0.345013 122 97 79
-1.78609 -4.43901 2.54959 -0.500056 0.78977 -0.355256 117 93 80
-1.41871 -4.46691 2.60988 0.186614 0.951754 -0.243596 87 88 85
2.10986 -4.32877 2.78572 -0.384488 0.891604 0.239188 112 108 106
2.37086 -4.4642 2.90062 0.0669596 0.980799 -0.183165 132 128 122
2.35872 -4.45756 2.87783 0.153752 0.987841 -0.0230368 114 110 104
2.40684 -4.46202 2.90902 0.0411122 0.976757 -0.210368 131 126 122
2.46709 -4.47867 2.9017 0.181147 0.982888 -0.033408 100 100 98
2.45118 -4.47282 2.88167 0.0508473 0.997767 -0.0433162 110 108 106
2.51645 -4.4807 2.92723 0.135713 0.989531 0.049099 81 84 85
2.57588 -4.49475 2.90628 -0.0374435 0.993408 -0.108341 115 115 116
2.70333 -4.49379 2.92419 0.167028 0.870303 -0.463329 129 125 123
2.77314 -4.49125 2.942 0.0343979 0.996889 0.0709186 131 124 121
-1.86984 -4.51152 2.65489 -0.351696 0.792195 -0.498736 95 44 20
-1.81365 -4.46614 2.62759 -0.133403 0.31303 -0.940328 99 64 46
-1.80801 -4.43966 2.58818 -0.544788 0.719503 -0.430723 108 74 52
-1.7409 -4.41235 2.57132 -0.435332 0.815822 -0.380684 109 100 92
-1.71573 -4.42651 2.60874 -0.333091 0.44649 -0.83048 128 125 119
2.35993 -4.4495 2.93005 0.180138 0.828855 -0.529669 115 108 104
2.41528 -4.46376 2.92715 0.151825 0.958191 -0.242527 123 115 112
2.45432 -4.45415 2.9432 0.365819 0.584036 -0.724623 118 107 103
2.56937 -4.4927 2.96145 0.134474 0.988978 -0.0619628 76 74 75
2.37255 -4.4552 2.95402 0.0999119 0.984166 -0.146407 107 91 86
2.61086 -4.48037 2.98283 0.0780195 0.996376 0.0338891 88 70 65
-1.76175 -7.89131 -1.85527 0.925943 0.195149 0.323337 211 223 219
-1.72 -8.26064 -1.88814 0.857106 0.203527 0.47323 210 221 218
-1.66709 -8.35197 -1.88764 0.792909 0.448599 0.412376 211 221 218
-1.45193 -8.74825 -2.02425 0.850877 0.501358 0.157001 210 220 217
-1.42605 -8.8482 -2.05148 0.887324 0.234807 0.39689 208 218 215
-1.46385 -6.18875 -1.25075 0.967599 0.20272 0.150525 204 215 212
-1.38155 -8.88135 -2.02658 0.919961 0.387499 -0.0592996 210 221 217
-0.617866 -7.64661 -1.73239 0.57728 0.80939 0.107867 0 0 0
-3.09067 -7.2071 -1.40951 0.983768 0.142021 0.109685 193 199 198
-3.09023 -7.20436 -1.40934 0.983161 0.144109 0.112369 193 199 198
-1.6368 -5.18662 -0.94421 0.974943 0.144067 0.169503 197 203 202
-0.607151 -7.46064 -1.5258 0.575827 0.792164 0.202236 209 222 218
-1.554 -5.30668 -0.885504 0.984129 0.136116 0.11385 194 200 199
-1.46532 -6.7131 -1.25496 0.549585 0.308203 0.77651 210 224 221
2.89662 -5.5231 -1.17286 -0.950366 0.154414 0.270112 199 209 207
2.84942 -5.34155 -1.12827 -0.94798 0.14914 0.281232 199 210 208
0.672692 -4.62916 -0.809674 -0.7506 0.655098 0.0862928 199 217 216
2.92058 -5.57935 -1.18027 -0.948943 0.118652 0.292282 199 209 208
2.91835 -5.54917 -1.16869 -0.981187 0.0722998 0.179011 202 211 210
2.92795 -5.46112 -1.15297 -0.979612 0.0601678 0.191676 201 212 210
-1.33635 -4.79159 -0.721633 0.655899 0.109101 0.746923 198 204 203
-1.35122 -4.78303 -0.71904 0.712247 0.146996 0.686365 197 203 202
-1.43546 -6.53897 -1.12041 0.628953 0.157448 0.761333 207 221 218
-1.84355 -5.3333 -0.766313 0.689847 0.107716 0.715897 201 209 207
-1.53912 -6.54355 -1.06791 0.957623 0.225725 0.178901 204 216 213
-1.89397 -5.37205 -0.737686 0.736564 0.106606 0.667914 200 208 206
-2.13179 -7.58191 -1.21675 0.98169 0.128277 0.140822 196 208 204
-1.46749 -6.52949 -1.02908 0.972421 0.178145 0.150539 203 216 213
1.17237 -6.30609 -1.1198 0.791644 0.559958 0.244432 179 197 195
2.96101 -5.88212 -1.13007 -0.903384 0.278339 0.326228 195 208 205
-1.22363 -4.35033 -0.517234 0.978408 0.128735 0.161696 197 203 202
-1.25125 -4.51664 -0.564583 0.762768 0.145064 0.630192 198 204 204
-1.53283 -6.42676 -0.96833 0.748775 0.297742 0.592187 203 215 213
-1.53236 -6.56485 -0.998576 0.928775 0.288022 0.23328 203 216 213
-1.5156 -6.49876 -0.97402 0.950222 0.24766 0.189058 202 214 212
-1.47266 -6.55814 -0.970562 0.972773 0.179456 0.146655 203 215 213
-1.47706 -6.55203 -0.961885 0.972871 0.176637 0.149402 202 215 212
-1.42756 -6.45944 -0.957148 0.942125 0.218711 0.254099 204 218 215
-0.499528 -6.12478 -0.935316 0.921542 0.308035 0.236378 201 216 213
-1.38854 -4.41838 -0.487091 0.975161 0.141585 0.170334 199 206 205
-1.47156 -5.46092 -0.699282 0.980331 0.162611 0.111843 198 206 205
-1.61182 -6.66174 -0.959012 0.934258 0.282949 0.217032 204 216 214
-1.50197 -6.51033 -0.945493 0.974806 0.17439 0.139071 200 212 210
-1.46643 -6.49515 -0.902177 0.980165 0.167986 0.105152 197 209 207
-0.362533 -6.29857 -0.942056 0.717193 0.498424 0.487039 204 220 217
-0.368708 -6.329 -0.952644 0.683284 0.261075 0.681882 203 219 216
-0.363877 -6.23077 -0.941102 0.873643 0.295372 0.386656 201 217 214
-0.316397 -6.29827 -0.928897 0.813238 0.379035 0.441561 203 220 217
0.853043 -6.18035 -0.97671 0.66127 0.727764 -0.18188 186 207 204
1.14594 -6.36822 -1.02909 0.393077 0.761626 0.515186 177 196 194
-1.44353 -4.60868 -0.519358 0.628646 0.111551 0.76965 196 203 202
-1.42479 -4.6547 -0.511514 0.967823 0.162361 0.192242 194 202 201
-1.48184 -4.82775 -0.538418 0.981585 0.108815 0.157006 193 199 199
-2.64377 -8.77876 -1.26078 0.968667 0.153302 0.195403 201 213 210
-1.57908 -6.61664 -0.896679 0.974843 0.170045 0.144105 199 211 208
-1.52424 -6.56578 -0.895968 0.974298 0.17198 0.145488 200 212 209
-1.52034 -6.56759 -0.906737 0.974326 0.173058 0.144017 200 212 210
-0.546885 -6.27875 -0.874327 0.881375 0.265127 0.391007 200 214 211
-0.373308 -6.60353 -0.926952 0.708839 0.276514 0.648913 201 219 217
1.09932 -6.32557 -0.98165 0.518843 0.854645 -0.0196061 178 197 195
-3.03583 -6.88112 -0.802179 0.994194 0.0518175 0.0943008 190 196 196
-1.52519 -5.517 -0.653171 0.985007 0.153506 0.0787272 196 204 203
-1.51142 -5.60342 -0.653017 0.985109 0.153063 0.0783064 195 204 203
-2.7691 -8.79808 -1.1658 0.985083 0.125395 0.117846 197 208 206
-1.60877 -6.69044 -0.849679 0.976846 0.170664 0.12902 198 209 207
-1.13258 -6.9976 -0.939777 0.909332 0.390075 -0.144764 192 208 204
-1.15381 -7.07975 -0.959891 0.945749 0.323095 -0.0341705 193 208 204
-1.09887 -7.118 -0.947061 0.91163 0.391323 -0.125686 193 208 204
-1.12196 -7.21635 -0.976293 0.942187 0.330708 -0.0539918 192 208 203
-0.515152 -6.36575 -0.871579 0.873449 0.269176 0.405747 200 214 211
-0.474331 -6.56465 -0.864923 0.893481 0.347777 0.284153 201 217 213
-0.378324 -6.53473 -0.900692 0.913688 0.375697 0.155005 201 218 216
-0.395264 -6.77521 -0.925905 0.860531 0.294573 0.415588 196 213 212
-2.33739 -6.0863 -0.673643 0.700031 0.179184 0.691267 193 200 200
-2.32972 -6.14631 -0.663387 0.976833 0.14875 0.153855 192 200 199
-2.55866 -6.78332 -0.768754 0.800794 0.0902131 0.592106 194 201 201
-2.56879 -8.51152 -1.0955 0.978936 0.160283 0.126466 199 210 208
-2.61151 -8.60706 -1.11151 0.976183 0.154309 0.1525 198 209 207
-2.64876 -8.88861 -1.14281 0.956745 0.171379 0.235094 201 213 211
-1.15291 -7.02179 -0.874547 0.935269 0.336527 -0.109644 191 206 204
-0.677518 -6.58553 -0.812907 -0.438103 0.61958 0.651296 201 216 213
-0.431671 -6.60235 -0.85092 0.913153 0.33701 0.229293 199 215 212
-0.435517 -6.62596 -0.857275 0.881813 0.355235 0.310185 200 217 214
-0.393411 -6.69801 -0.854566 0.915362 0.35113 0.19703 198 216 214
-2.94067 -6.75713 -0.718378 0.993933 0.0557775 0.0947953 190 196 196
-2.86655 -6.59147 -0.684707 0.990752 0.0720566 0.114973 187 193 193
-2.56764 -6.84998 -0.757472 0.811164 0.184036 0.555107 194 203 202
-2.56954 -6.85151 -0.758218 0.824687 0.180533 0.536003 194 203 202
-2.53604 -6.77842 -0.714731 0.759629 0.182775 0.624144 194 202 202
-1.10317 -7.31835 -0.898462 0.910436 0.391021 -0.13494 197 212 209
-0.524274 -6.59558 -0.803079 0.854207 0.313238 0.414985 199 215 212
-0.384706 -6.61907 -0.825416 0.86013 0.40875 0.305121 200 218 216
0.580477 -5.8812 -0.736619 -0.315556 0.593111 0.740705 190 211 209
0.629218 -6.0801 -0.755757 -0.643074 0.470662 0.604097 192 213 211
0.98818 -6.25387 -0.795748 0.491484 0.867608 0.0754988 188 207 206
1.03469 -6.28681 -0.830281 0.740056 0.665352 -0.0981033 187 206 204
3.09214 -5.05863 -0.696552 -0.829519 0.439942 0.34402 187 196 195
3.11757 -5.03576 -0.706224 -0.826354 0.328901 0.457125 190 199 198
3.11246 -4.94276 -0.682779 -0.808681 0.322959 0.491663 190 198 197
-1.56442 -5.38397 -0.499269 0.95937 0.243852 0.141936 193 201 198
-1.56998 -5.51407 -0.512365 0.969835 0.186507 0.156958 195 205 202
-1.61015 -5.60587 -0.534117 0.778841 0.171982 0.603182 191 199 197
-1.57049 -5.52257 -0.516606 0.940177 0.278405 0.196363 196 205 202
-1.61344 -5.73658 -0.5493 0.979721 0.179313 0.089406 196 206 204
-2.66752 -8.5831 -0.994369 0.96616 0.143364 0.214436 192 205 203
-2.66378 -8.58512 -0.993987 0.967219 0.144714 0.208675 192 205 203
-2.6591 -8.54115 -0.983739 0.968272 0.138607 0.207935 195 206 205
-0.426868 -6.59711 -0.752562 0.863626 0.394382 0.314027 199 217 214
0.936514 -6.23076 -0.768755 0.139086 0.937281 0.319625 187 206 205
0.985801 -6.24367 -0.739563 -0.217514 0.828781 0.515567 186 206 204
1.13015 -6.46276 -0.793575 0.260617 0.953558 0.151015 182 201 199
1.29959 -6.39864 -0.80134 -0.36015 0.897888 0.253159 185 204 202
1.72862 -5.42503 -0.665742 0.0164909 0.999857 -0.0038474 187 205 203
1.68405 -5.33855 -0.627566 -0.205679 0.975237 -0.0812991 181 201 198
1.77074 -5.41998 -0.640374 0.536642 0.781569 -0.318064 185 203 200
3.12012 -5.03257 -0.647616 -0.863194 0.347218 0.366519 189 198 197
3.15575 -4.98231 -0.647348 -0.815875 0.322067 0.48023 192 201 200
3.10637 -4.45287 -0.566526 -0.970042 0.0539796 0.236863 183 190 190
2.99507 -4.17364 -0.525541 -0.957966 0.0465978 0.283072 192 197 197
-2.89927 -6.70076 -0.601087 0.992041 0.060818 0.110258 186 192 192
-1.44836 -4.99113 -0.39156 0.684282 0.174587 0.70801 193 201 199
-2.72025 -8.56788 -0.886465 0.968898 0.140811 0.203492 191 203 201
-2.71158 -8.54903 -0.878225 0.969882 0.141629 0.198166 191 203 201
-2.6523 -8.38529 -0.840652 0.990357 0.133608 0.0366218 192 204 202
-2.02516 -7.10724 -0.709248 0.966389 0.149692 0.20901 197 208 206
-2.02516 -7.10724 -0.709248 0.966389 0.149692 0.20901 196 208 206
-0.515867 -6.60654 -0.71864 0.718431 0.448499 0.531701 200 216 213
-0.46775 -6.63331 -0.706979 0.677342 0.580438 0.451996 200 216 213
1.04344 -6.38021 -0.729691 -0.45897 0.506781 0.729739 185 205 203
1.11478 -6.41674 -0.740405 -0.473344 0.502453 0.723524 183 203 200
1.29656 -6.40029 -0.747278 -0.094416 0.940126 0.327489 181 201 198
1.3723 -6.25151 -0.7263 -0.803409 0.329956 0.495645 195 214 211
1.40408 -6.13787 -0.720533 -0.614929 0.310934 0.724695 194 213 210
1.64394 -5.34785 -0.603583 -0.771339 0.543688 -0.330818 186 205 202
3.21714 -4.88624 -0.594251 -0.826716 0.314698 0.466374 197 203 202
3.22131 -4.92271 -0.599022 -0.965737 0.156552 0.206987 192 200 199
3.19193 -4.7636 -0.567441 -0.994626 0.00308182 0.103484 203 209 208
3.09373 -4.30689 -0.497868 -0.970711 0.044303 0.236129 194 200 199
-2.9215 -6.67434 -0.561677 0.992863 0.0518479 0.107401 184 190 190
-2.75772 -6.56599 -0.543562 0.995962 0.0706346 0.0554166 188 194 193
-2.38751 -6.11405 -0.490514 0.99358 0.108372 -0.0324651 185 191 191
-1.53044 -5.33498 -0.41211 0.983023 0.145994 0.111137 190 198 196
-2.11451 -6.76863 -0.611751 -0.284267 0.802372 -0.524777 198 208 207
-2.18613 -6.93368 -0.626738 -0.288455 0.868049 -0.404085 197 206 205
-1.67084 -5.92231 -0.507494 0.976914 0.196192 0.084541 197 206 205
-0.428684 -6.68399 -0.673541 0.816861 0.420884 0.394456 199 217 214
-0.387938 -6.7679 -0.674008 0.800592 0.417189 0.430122 191 210 207
0.398914 -6.29864 -0.643673 -0.762963 0.576382 0.292697 197 218 216
0.968297 -6.3403 -0.660253 -0.504468 0.49032 0.710703 185 205 203
1.34569 -6.41182 -0.720315 -0.00412937 0.3719 0.928264 179 201 197
2.1588 -7.07175 -0.810422 -0.840514 0.437733 -0.319257 190 208 206
3.14043 -6.42853 -0.766672 -0.96307 0.189696 0.191082 191 206 204
3.04776 -4.29062 -0.482771 -0.966482 0.0519102 0.251433 181 188 188
-2.82887 -6.60425 -0.4653 0.990311 0.0659918 0.122183 184 191 191
-2.76832 -6.56552 -0.497414 0.992419 0.0547772 0.110019 189 195 194
-2.24587 -6.88974 -0.578294 -0.322367 0.819273 -0.474207 197 206 204
-2.05628 -6.73001 -0.554689 -0.361321 0.845506 -0.393149 197 207 206
-1.91854 -6.82063 -0.584795 0.97169 0.164989 0.169106 196 207 205
-1.84925 -7.20709 -0.613715 -0.436815 0.778189 -0.451236 199 213 209
-0.902627 -6.75568 -0.596311 -0.453459 0.580571 0.676249 195 212 209
-0.822045 -6.70099 -0.597775 -0.598415 0.753495 -0.272295 196 213 209
-0.715388 -6.58193 -0.589335 -0.558482 0.639042 0.528888 190 207 204
-0.166653 -7.08032 -0.685546 -0.496568 0.688215 -0.528942 198 220 219
0.698059 -6.4118 -0.607803 -0.321852 0.882994 0.341663 192 212 210
1.06666 -6.45766 -0.658629 0.80859 0.57841 -0.107817 175 196 194
1.02995 -6.44066 -0.65263 -0.475224 0.477789 0.738837 178 199 197
1.24983 -6.41463 -0.672293 -0.512654 0.780045 0.35877 184 204 201
1.70644 -7.25738 -0.792186 0.650509 0.535056 0.539031 183 203 201
2.05349 -7.05624 -0.779686 -0.906462 0.284247 0.312298 196 212 209
2.11889 -6.99348 -0.751911 -0.891944 0.355608 -0.279246 194 211 209
2.17031 -6.81177 -0.769887 -0.829664 0.437451 -0.346835 189 207 205
2.15457 -6.79287 -0.762887 -0.851268 0.407199 -0.330956 192 210 208
2.17018 -6.53048 -0.721711 -0.907657 0.375798 -0.186909 195 212 209
2.97134 -6.52878 -0.750886 -0.834289 0.499239 -0.23393 182 201 198
3.20332 -5.87737 -0.682779 -0.993351 0.0939122 0.0665889 197 208 207
3.20328 -5.8763 -0.6836 -0.993414 0.0942554 0.0651483 197 208 207
3.2608 -4.99189 -0.549964 -0.984899 0.0408476 0.168244 201 208 206
3.26714 -5.00057 -0.55173 -0.985426 0.0413029 0.165013 198 204 203
3.01855 -4.16286 -0.409579 -0.966474 0.0484055 0.25216 190 196 195
-2.47371 -6.17915 -0.414567 0.993359 0.103358 -0.0505438 183 190 189
-2.52585 -6.46486 -0.411598 0.974132 0.206507 0.0917755 183 189 186
-2.011 -6.63777 -0.482239 -0.11255 0.961389 -0.251123 194 204 203
-1.90832 -6.63616 -0.48916 0.945956 0.176809 -0.271856 190 199 198
-1.8605 -6.65828 -0.466232 0.955256 0.17745 -0.236636 190 199 197
-1.31158 -6.85241 -0.563386 -0.561242 0.811435 -0.163037 197 213 210
-0.692246 -6.55526 -0.515056 -0.455243 0.662195 0.59519 193 210 206
1.06969 -6.52072 -0.6123 0.107884 0.410674 0.905377 177 198 195
1.1116 -6.53804 -0.584971 0.710795 0.631218 0.310377 185 205 203
2.993 -4.14532 -0.389977 -0.999938 0.011107 0.000811111 199 203 202
2.99459 -4.065 -0.387711 -0.999996 -0.00132178 -0.00253327 200 203 202
-2.39839 -6.78318 -0.410854 0.0201536 0.897215 -0.441133 183 183 171
-1.87354 -6.77116 -0.468511 0.313711 0.81749 -0.483008 195 206 202
-1.82436 -6.72961 -0.432801 0.959585 0.176708 -0.219024 184 192 184
0.928635 -6.43237 -0.521474 0.518978 0.448675 0.727566 185 205 203
1.00495 -6.52422 -0.540496 0.551709 0.456806 0.697815 182 203 200
3.11181 -5.81719 -0.541206 -0.987215 0.107914 0.117305 190 202 201
2.89803 -3.91701 -0.323675 -0.989665 0.0313007 0.139942 190 195 195
-2.40256 -6.75639 -0.357684 0.333503 0.808174 -0.485419 183 175 152
-0.402903 -6.78832 -0.456641 -0.332167 0.907064 -0.258649 193 210 207
-0.378533 -6.81907 -0.479664 -0.0981213 0.90562 -0.412583 193 210 208
0.929821 -6.47594 -0.472092 0.585633 0.478867 0.654004 182 203 200
1.03872 -6.54078 -0.489034 0.734466 0.500303 0.458538 179 199 196
1.10999 -6.56551 -0.531557 0.498266 0.539788 0.678499 186 206 203
1.28452 -6.65541 -0.531678 0.524311 0.548279 0.651527 188 208 205
1.90889 -6.96759 -0.581146 -0.871302 0.400009 -0.284298 194 212 210
2.82231 -6.57637 -0.589812 0.47714 0.86834 0.135364 187 205 203
3.70465 -6.70886 -0.621357 0.48937 0.854293 -0.175214 188 199 198
-2.20311 -6.6652 -0.341982 0.428562 0.878839 -0.209708 186 180 156
-1.87021 -6.66012 -0.340291 0.962508 0.213177 0.167733 181 176 150
-1.87373 -6.73441 -0.324138 0.431431 0.888515 0.156231 161 155 125
-1.13927 -6.84058 -0.385736 -0.0164427 0.816417 -0.577228 191 195 176
0.872328 -6.58848 -0.442408 0.573785 0.470963 0.670048 183 205 202
0.892848 -6.63118 -0.451775 0.499568 0.506451 0.702808 179 201 198
1.21467 -6.66098 -0.470704 0.523094 0.547973 0.652763 186 206 203
1.28629 -6.7602 -0.478187 0.643809 0.549654 0.532345 185 206 203
1.53691 -6.67957 -0.487906 0.671268 0.722065 -0.167396 185 204 202
1.75996 -6.7307 -0.496762 0.616026 0.731565 -0.292103 183 203 200
1.86219 -6.73729 -0.502841 0.591987 0.718447 -0.365219 181 201 198
1.89805 -6.81953 -0.520312 -0.847708 0.43779 -0.299552 191 210 207
2.24841 -6.54818 -0.501973 0.465092 0.785623 -0.408026 187 207 204
2.24841 -6.54818 -0.501973 0.465092 0.785623 -0.408026 187 207 204
2.75307 -6.5818 -0.517003 0.418181 0.766358 -0.487668 176 197 194
-1.08063 -6.77978 -0.309032 -0.442039 0.836765 -0.323149 169 169 139
-1.03164 -6.81122 -0.348541 -0.11361 0.965526 -0.234208 190 192 166
-0.705556 -6.59925 -0.322305 -0.601793 0.713653 -0.358532 194 198 175
-0.438184 -6.76844 -0.370319 -0.0299928 0.645596 -0.76309 183 189 171
2.37196 -6.67522 -0.455793 0.453449 0.78517 -0.421772 187 206 204
2.85936 -6.55403 -0.50082 0.575854 0.777221 -0.253614 175 195 193
2.97187 -6.617 -0.480544 0.502181 0.808733 -0.306211 182 201 199
3.72224 -6.68975 -0.551102 0.260076 0.948195 -0.182446 189 200 198
-1.84827 -6.73831 -0.251481 0.973032 0.229719 0.0209426 169 167 143
-1.32441 -6.68215 -0.261231 -0.41723 0.846009 -0.331946 158 159 132
-1.32823 -6.7274 -0.263417 0.204523 0.899563 -0.38595 160 161 135
-1.31682 -6.73103 -0.26203 0.220411 0.92053 -0.322558 161 161 136
-0.476563 -6.75125 -0.323511 -0.302391 0.697456 -0.649704 194 194 167
0.729852 -6.63112 -0.337767 0.603271 0.775466 0.186325 182 191 175
2.02975 -6.74045 -0.433245 -0.427471 0.567934 -0.703363 184 202 197
2.21482 -6.65795 -0.415874 0.339757 0.930833 -0.134591 185 203 198
2.48092 -6.60827 -0.421515 0.465092 0.61244 0.639224 183 202 199
2.53007 -6.64465 -0.408206 -0.0516982 0.860783 0.506339 186 204 200
2.68164 -6.58823 -0.424824 0.513897 0.778819 0.359655 186 205 203
2.90137 -6.55056 -0.420991 0.550676 0.807139 -0.212797 182 201 199
2.9256 -6.55295 -0.419937 0.412204 0.738583 0.533463 184 203 201
3.568 -6.40981 -0.426381 0.408531 0.876429 -0.2549 187 198 196
4.36355 -6.49231 -0.487955 0.338137 0.907258 -0.250091 189 194 194
-0.524945 -6.67241 -0.22823 0.569079 0.644892 -0.51016 173 177 155
-0.432583 -6.67612 -0.230826 0.166919 0.780415 -0.60257 175 180 157
-0.41456 -6.53322 -0.220198 0.72433 0.531629 -0.438994 172 176 154
-0.43202 -6.65315 -0.228486 0.384735 0.567529 -0.727936 172 176 155
-0.153291 -6.72475 -0.274781 0.694392 0.565412 -0.445117 172 175 150
0.727722 -6.66821 -0.292488 0.365528 0.497385 0.786764 173 178 155
1.33071 -6.77126 -0.299471 0.637615 0.706731 -0.30656 177 180 155
1.83946 -6.70269 -0.328595 0.378172 0.711779 -0.591909 176 180 159
2.3663 -6.61507 -0.380636 0.40274 0.774289 -0.488137 186 201 192
2.51713 -6.64578 -0.340779 0.523048 0.659703 0.539641 183 190 172
2.66257 -6.61024 -0.359376 0.115993 0.701694 0.702973 185 197 185
2.72524 -6.56274 -0.389385 -0.351746 0.898847 0.261439 186 204 199
2.76986 -6.54232 -0.35332 0.287201 0.93451 0.210255 185 198 188
2.97735 -6.6046 -0.404596 0.448564 0.84721 -0.28465 189 206 202
3.98459 -6.55423 -0.42269 0.346128 0.883181 -0.316522 188 196 194
4.30927 -6.49622 -0.452775 0.36841 0.91206 -0.180055 189 195 194
4.91183 -6.4904 -0.443463 0.303313 0.779179 0.548526 183 186 184
-2.19627 -6.61768 -0.120445 0.99289 0.1167 0.0234846 162 161 138
-2.06922 -6.6686 -0.134473 0.992941 0.118451 0.00604164 162 162 139
-1.52929 -6.21733 -0.0947367 -0.196672 0.881182 -0.429928 170 171 151
-1.20932 -6.1896 -0.146806 -0.111891 0.86473 -0.489615 171 172 151
-1.14552 -6.17779 -0.14405 -0.38339 0.847137 -0.367928 169 171 150
-0.913934 -6.05459 -0.143766 0.95071 0.25916 -0.170253 168 171 149
-0.628014 -6.16448 -0.137555 0.678553 0.471304 -0.563417 169 175 153
-0.635979 -6.16818 -0.137588 0.589488 0.481784 -0.648374 164 171 149
-0.635979 -6.16818 -0.137588 0.589488 0.481784 -0.648374 164 171 149
-0.266412 -6.70006 -0.211505 0.848141 0.400862 -0.346363 171 177 156
0.245629 -6.63501 -0.214353 0.673009 0.577694 -0.461875 166 177 157
0.787771 -6.72459 -0.272688 0.669806 0.565955 0.480683 161 166 140
1.37058 -6.80643 -0.280782 -0.042726 0.970936 -0.235496 169 174 149
1.74937 -6.63086 -0.305509 0.635565 0.742066 -0.213063 183 186 164
1.80731 -6.62825 -0.28081 0.575785 0.750616 -0.324108 180 182 158
1.85378 -6.65908 -0.283707 0.472105 0.733258 -0.489336 180 182 157
2.38421 -6.59162 -0.30952 0.467112 0.711583 0.524838 189 191 166
2.45802 -6.67265 -0.334397 0.0738131 0.965806 -0.248536 187 191 170
2.59969 -6.57333 -0.323184 0.137135 0.987553 -0.077022 183 191 172
2.95588 -6.57552 -0.32629 0.314697 0.774876 -0.548209 180 187 170
3.01189 -6.54667 -0.339788 0.344037 0.800328 -0.491034 181 191 177
3.06538 -6.56199 -0.354348 0.445207 0.80691 -0.388183 179 191 180
3.68086 -6.47185 -0.330082 0.398153 0.862676 -0.311871 180 183 170
3.92357 -6.52966 -0.361138 0.293751 0.870785 -0.394263 188 192 183
4.41677 -6.51627 -0.352498 -0.191352 0.858127 -0.476448 187 188 178
4.41316 -6.51867 -0.355326 -0.15589 0.837153 -0.524283 187 188 180
4.59119 -6.66976 -0.411312 0.293534 0.918305 -0.265618 189 192 188
4.54026 -6.60676 -0.408347 -0.166055 0.84782 -0.503615 191 195 191
4.67649 -6.62302 -0.381497 0.334998 0.886252 -0.319897 185 186 179
-0.873556 -5.88985 -0.0569966 0.94985 0.309381 -0.0454804 165 169 154
-0.942455 -6.19051 -0.0889801 -0.222274 0.727951 -0.6486 153 157 140
-0.916835 -6.18464 -0.111888 0.627776 0.663879 -0.406401 166 169 149
-0.760493 -6.09771 -0.0696985 0.297329 0.491458 -0.818575 155 161 147
-0.190064 -6.71403 -0.167596 0.513007 0.696371 -0.501888 166 173 153
0.280175 -6.22807 -0.12959 0.404475 0.630189 -0.662768 171 180 162
0.76307 -6.56427 -0.193528 0.681369 0.689091 -0.24676 153 165 146
0.76307 -6.56427 -0.193528 0.681369 0.689091 -0.24676 155 167 148
1.34358 -6.31288 -0.20558 0.332928 0.659248 -0.674204 154 162 141
1.36608 -6.61043 -0.209272 0.150059 0.610561 -0.777623 156 165 147
1.65249 -6.50068 -0.190563 0.565061 0.635915 -0.525659 157 166 146
2.05422 -6.43573 -0.222214 0.0743722 0.625592 -0.776597 153 157 132
2.15877 -6.65672 -0.258432 0.618414 0.782868 0.0684197 172 174 147
2.52158 -6.67675 -0.285544 0.552069 0.750499 -0.363278 182 185 158
2.55281 -6.59125 -0.236547 0.501368 0.768577 -0.39739 165 171 147
2.6675 -6.60765 -0.23882 0.419331 0.798064 -0.43273 170 175 150
2.99803 -6.50376 -0.254474 0.400247 0.830566 -0.387249 187 187 158
4.36847 -6.53512 -0.311792 0.331621 0.89699 -0.292294 183 178 158
4.5484 -6.58234 -0.34231 -0.280972 0.850141 -0.445325 185 183 170
4.53436 -6.56897 -0.342217 0.153859 0.829385 -0.537074 186 183 170
4.54772 -6.58143 -0.3422 -0.283576 0.853248 -0.437667 185 183 170
4.54744 -6.58848 -0.344476 0.164777 0.836823 -0.522089 186 183 170
4.51724 -6.51703 -0.332327 0.109432 0.77265 -0.62533 175 172 157
4.5473 -6.57366 -0.346309 0.359509 0.878873 -0.313583 180 178 165
4.55012 -6.57617 -0.346475 0.336215 0.872272 -0.355108 180 178 165
4.5508 -6.57712 -0.346621 0.363935 0.879138 -0.30768 180 178 165
4.51724 -6.51703 -0.332327 0.109432 0.77265 -0.62533 175 172 157
4.79049 -6.64768 -0.3507 0.0975984 0.877326 0.469865 186 183 170
4.93227 -6.64641 -0.371441 0.264895 0.898142 0.350958 190 189 181
5.35114 -6.6828 -0.361058 0.190869 0.958525 0.211655 185 182 172
5.31934 -6.64359 -0.360499 0.28038 0.954314 -0.103306 185 183 173
-2.05035 -6.64535 -0.0217564 0.623969 0.421461 -0.658053 146 141 111
-0.929829 -6.15823 -0.0523478 0.0103184 0.810853 -0.585159 146 157 145
-0.936941 -6.12485 -0.0334341 0.0582473 0.92775 -0.36863 159 171 163
-0.038276 -6.16807 -0.0781477 0.412225 0.488946 -0.768767 157 165 143
0.605744 -6.19774 -0.0822741 0.161648 0.55882 -0.813382 148 164 151
0.977693 -6.19483 -0.13873 -0.0121531 0.548719 -0.835919 154 163 144
0.951651 -6.13934 -0.120395 -0.0218961 0.54928 -0.835352 156 167 147
1.18567 -6.23908 -0.148552 0.0608548 0.569001 -0.820082 157 166 148
1.2372 -6.14258 -0.118495 0.561199 0.671169 -0.484343 154 163 145
1.27776 -6.17076 -0.138642 -0.120787 0.559412 -0.820042 154 163 145
1.33468 -6.13191 -0.138134 0.216869 0.576538 -0.787763 156 164 147
1.3493 -6.08616 -0.134106 0.254082 0.638297 -0.72665 156 165 146
1.59481 -6.34764 -0.175223 0.328806 0.609751 -0.721173 155 166 147
1.68825 -6.28775 -0.175674 0.667815 0.652176 -0.358734 156 166 145
1.8476 -6.27048 -0.182152 0.146207 0.637022 -0.756853 155 163 141
1.96338 -6.17835 -0.138844 0.202772 0.664113 -0.719609 157 166 145
2.29061 -6.68194 -0.172805 0.527573 0.777947 -0.341269 162 171 152
4.23744 -6.49636 -0.24996 0.355884 0.893881 -0.272625 181 173 145
4.20526 -6.44841 -0.253059 0.0350027 0.98788 -0.151224 184 177 151
4.26609 -6.45799 -0.271992 0.289637 0.922216 -0.25618 186 177 152
4.36722 -6.50687 -0.247214 0.331414 0.897762 -0.290151 183 173 145
4.64876 -6.65876 -0.274953 -0.0247351 0.777048 -0.628955 182 171 144
4.61793 -6.63924 -0.285069 -0.117772 0.85727 -0.501216 182 171 146
4.61845 -6.6407 -0.285205 -0.11669 0.850768 -0.512423 183 173 147
4.61756 -6.63875 -0.285015 -0.119596 0.856843 -0.501514 183 173 147
4.72654 -6.68017 -0.312837 -0.00991882 0.97245 -0.232898 183 175 153
4.77288 -6.64783 -0.293627 0.114692 0.971407 0.207879 185 174 150
4.86825 -6.72132 -0.285953 -0.0980953 0.939315 -0.328732 187 176 150
4.92627 -6.71734 -0.323238 -0.0278356 0.933115 -0.358498 179 170 150
4.94696 -6.76709 -0.325673 0.00197868 0.883131 -0.469122 179 170 150
4.92486 -6.7135 -0.313556 0.192805 0.926646 -0.322727 182 173 151
4.85566 -6.64423 -0.320783 0.313322 0.886797 -0.339735 182 174 155
5.16294 -6.82949 -0.339479 0.227416 0.964674 -0.132986 187 180 162
5.32924 -6.64802 -0.289818 0.361398 0.932186 0.0205303 181 170 146
-2.50997 -6.51212 0.0690766 -0.303865 0.774616 -0.55465 144 148 142
-1.44565 -6.2161 0.0292226 -0.39601 0.754109 -0.523923 159 177 178
-1.31888 -6.13215 0.0150126 -0.0214655 0.958948 -0.28277 161 175 173
0.63514 -6.0804 -0.0472046 0.409004 0.558383 -0.721751 150 167 160
0.933641 -6.1525 -0.0696785 0.114326 0.657801 -0.744465 159 172 160
1.66451 -6.04652 -0.102533 0.621994 0.75238 -0.216905 153 163 141
1.63427 -6.03639 -0.0826773 0.270105 0.727666 -0.630512 158 169 152
1.84549 -6.16712 -0.124128 -0.430419 0.610511 -0.664843 156 164 142
2.05154 -6.296 -0.103255 0.203682 0.661525 -0.721733 154 164 143
2.20097 -6.49413 -0.122181 0.335313 0.67364 -0.658615 157 165 146
2.14737 -6.13763 -0.101697 -0.648558 0.586505 -0.485164 156 165 145
2.35376 -6.65604 -0.118398 -0.0176825 0.961971 -0.272579 155 164 143
2.61945 -6.5421 -0.140197 -0.766712 0.574567 -0.2864 167 176 158
2.75341 -6.65108 -0.156722 0.540863 0.691412 0.478975 166 175 157
3.30568 -6.48943 -0.147579 0.479932 0.82819 -0.289424 162 169 151
4.21045 -6.47128 -0.19651 0.0704354 0.993184 0.0928635 158 154 129
4.2951 -6.48352 -0.199038 0.289532 0.939009 0.185565 159 154 128
4.47607 -6.57334 -0.20179 0.308576 0.913616 -0.264739 157 149 123
4.47014 -6.50087 -0.220825 -0.0956958 0.949525 -0.298738 173 163 135
4.56506 -6.62884 -0.240387 0.0946615 0.615599 0.782353 172 162 134
4.63557 -6.61679 -0.20487 -0.179934 0.925536 -0.333176 160 152 128
4.89489 -6.74092 -0.219052 -0.298969 0.935792 -0.186846 163 155 130
5.04325 -6.7736 -0.276292 0.346494 0.900151 -0.263951 180 168 142
5.16165 -6.8137 -0.268979 0.328871 0.931954 -0.152663 181 168 141
5.22806 -6.59527 -0.241858 0.0243134 0.946028 -0.323171 177 166 139
-2.23667 -6.49252 0.109431 0.539382 0.832844 0.12425 118 120 109
-1.50821 -6.11302 0.0610334 -0.10151 0.97983 -0.172129 150 162 160
-1.45978 -6.11649 0.0961987 0.064435 0.986149 -0.152833 136 150 148
-1.41266 -6.1231 0.0728401 0.0391507 0.983641 -0.175837 151 164 164
-1.3031 -6.1176 0.0795212 -0.0193114 0.986539 -0.162383 117 134 135
-1.23963 -6.07563 0.0627992 0.405102 0.910182 -0.0863839 157 172 172
-1.15505 -6.10237 0.0560808 -0.00302113 0.981058 -0.193692 140 154 152
-1.01237 -6.1036 0.0603373 -0.0646155 0.996402 0.0548362 127 145 144
-0.96407 -6.10184 0.0404473 -0.115296 0.965998 -0.23142 149 166 165
0.578782 -6.09243 -0.021671 0.597566 0.607189 -0.523676 108 134 131
1.41055 -6.03915 -0.0142558 0.575415 0.703293 -0.417466 144 162 159
1.5025 -6.15761 -0.0550343 0.0012282 0.644672 -0.764458 141 156 148
1.84505 -6.10938 -0.0657697 0.195924 0.719479 -0.666306 158 169 153
1.9056 -6.07128 -0.0596457 0.15912 0.815019 -0.557157 158 169 153
2.31986 -6.30021 -0.0965775 0.142758 0.647006 -0.749002 155 164 145
2.99569 -6.14934 -0.0812372 0.0858472 0.615689 -0.783299 155 164 145
3.95377 -6.37396 -0.113381 0.151163 0.697379 -0.700581 154 155 133
4.16293 -6.48591 -0.16289 0.0475181 0.962223 -0.268086 164 164 143
4.59901 -6.64871 -0.170073 0.104467 0.974517 -0.198501 161 157 135
4.46965 -6.46332 -0.13852 0.14244 0.73208 -0.66616 157 154 132
4.46965 -6.46332 -0.13852 0.14244 0.73208 -0.66616 157 154 132
4.57493 -6.65301 -0.200398 0.394753 0.904577 0.160965 154 149 123
4.87542 -6.72459 -0.213276 0.372547 0.927632 0.0266011 163 155 131
4.87542 -6.72459 -0.213276 0.372547 0.927632 0.0266011 163 155 131
4.87542 -6.72459 -0.213276 0.372547 0.927632 0.0266011 163 155 131
5.05916 -6.84998 -0.200942 -0.348079 0.88899 -0.297553 165 159 136
5.09243 -6.81579 -0.226028 0.29316 0.909207 -0.295634 166 157 132
5.12552 -6.8104 -0.225652 0.0614726 0.916941 -0.39426 167 158 133
-2.16681 -6.46256 0.142308 -0.249422 0.843902 -0.474992 136 111 85
-2.08736 -6.42184 0.127807 -0.405146 0.910724 0.0802459 145 104 66
-1.55239 -6.07865 0.144713 -0.0907653 0.990818 0.100204 149 162 163
-1.5054 -6.10301 0.118509 0.087817 0.99225 -0.0879079 151 165 166
-1.36832 -6.10841 0.0985591 0.0028991 0.994798 -0.101829 159 171 170
-1.36541 -6.11277 0.0986449 -0.000859894 0.985866 -0.167533 160 172 172
-1.29285 -6.1115 0.135884 -0.0474287 0.993736 0.101194 157 173 173
-1.24036 -6.06922 0.111548 0.344583 0.937793 -0.0425063 142 157 157
2.25635 -6.00484 -0.00207393 0.588122 0.755921 -0.287569 156 167 152
2.45582 -6.0447 -0.0210439 0.294083 0.725534 -0.622186 153 163 149
2.50739 -6.0726 -0.0451037 0.152093 0.617411 -0.771797 152 160 144
2.83129 -6.12186 -0.0530562 0.0145313 0.619785 -0.784637 152 161 144
2.83714 -5.98883 -0.0185161 0.390868 0.774371 -0.497566 155 165 151
4.12437 -6.31523 -0.0824183 -0.569762 0.696778 -0.435743 165 164 143
4.29603 -6.50094 -0.120083 0.305258 0.818397 -0.486872 156 156 133
4.58097 -6.58778 -0.104266 0.229743 0.972201 0.0452044 161 159 138
4.70211 -6.72264 -0.134493 0.303387 0.944795 0.123769 167 163 143
4.70211 -6.72264 -0.134493 0.303387 0.944795 0.123769 167 163 143
4.72543 -6.62022 -0.10142 0.261589 0.870176 -0.41757 167 164 143
4.72543 -6.62022 -0.10142 0.261589 0.870176 -0.41757 167 164 143
4.91994 -6.75909 -0.153229 -0.982978 0.0634994 -0.172404 163 160 138
5.18398 -6.89743 -0.138637 -0.0778227 0.959024 -0.272429 166 163 142
5.09288 -6.75463 -0.120552 0.0182353 0.927164 -0.374212 169 164 144
5.12829 -6.72485 -0.149814 0.288312 0.911705 -0.292695 167 162 141
5.4594 -6.91827 -0.182144 0.353205 0.927622 0.121507 169 161 140
-2.40289 -6.39137 0.212869 0.788845 0.607304 -0.0943662 142 150 149
-2.31255 -6.40597 0.202689 0.469336 0.868767 -0.158008 108 117 111
-2.22394 -6.41356 0.19304 0.0226256 0.996788 -0.0768178 124 123 113
-2.17007 -6.43033 0.21627 -0.262998 0.853207 -0.45041 141 112 83
-1.51005 -6.1114 0.17075 0.0922304 0.973956 -0.20713 112 131 132
-1.24711 -6.09281 0.16274 0.23866 0.940519 0.241797 137 153 153
2.31272 -6.03213 0.0163096 0.447113 0.748694 -0.489435 152 165 155
2.51353 -6.04711 0.0160954 0.301251 0.73195 -0.611144 149 162 154
2.79875 -6.01532 -0.00147168 0.392309 0.770165 -0.502931 152 163 152
3.52266 -6.04509 -0.0266683 -0.761553 0.421421 -0.492384 150 153 135
4.03674 -6.11802 -0.00875383 -0.245059 0.966054 -0.0817625 167 163 142
4.64698 -6.58312 -0.067367 0.266699 0.867476 -0.419948 167 164 143
-2.23934 -6.38754 0.234084 -0.27326 0.945864 -0.175127 125 126 119
-1.55366 -6.07164 0.201434 -0.276073 0.931702 -0.236041 147 159 160
-1.42097 -6.12489 0.224837 0.0297757 0.98931 0.142758 78 105 113
-1.28915 -6.11753 0.194461 -0.0891551 0.984601 0.15037 123 137 136
2.3102 -6.01118 0.0704382 0.549065 0.823143 -0.144785 137 156 154
3.00391 -6.00048 0.0654352 0.295696 0.783487 -0.546546 147 161 159
3.82678 -6.02728 0.0421783 0.199582 0.723859 -0.66045 121 117 96
3.86859 -6.02555 0.0144497 0.388746 0.893871 -0.223317 153 149 129
-2.08391 -6.32362 0.274638 -0.411964 0.886655 0.210067 150 107 70
-1.91334 -6.27864 0.299596 -0.460505 0.872084 -0.165543 72 31 6
-1.675 -6.11401 0.277933 -0.5661 0.823325 -0.0408276 123 137 137
-1.29126 -6.09826 0.240344 -0.0891277 0.906613 0.412443 134 147 147
-1.25067 -6.11415 0.263865 0.23535 0.956689 0.171336 150 166 165
1.40576 -5.99735 0.158629 0.139749 0.966234 0.216476 67 102 109
2.31209 -6.01026 0.11863 0.553237 0.820774 0.142331 91 117 120
