ply
format ascii 1.0
element vertex 733
property float x
property float y
property float z
property float nx
property float ny
property float nz
property uchar diffuse_red
property uchar diffuse_green
property uchar diffuse_blue
end_header
4.09267 5.56579 0.315802 0.165508 -0.96171 -0.218453 165 186 198
4.22288 5.58711 0.331027 -0.141941 -0.976388 -0.162847 170 189 198
4.27055 5.5895 0.303827 0.169977 -0.961436 -0.216213 172 192 202
4.3271 5.60182 0.336107 0.288899 -0.952516 0.0961788 139 159 168
4.03519 5.55825 0.286656 -0.223835 -0.958275 -0.177785 162 186 198
4.09552 5.58083 0.264044 0.219345 -0.933163 -0.284772 158 180 191
4.22152 5.59121 0.277105 -0.136697 -0.957941 -0.252317 130 150 160
4.26895 5.59411 0.249346 0.153395 -0.977428 -0.145273 166 187 198
5.43644 6.58834 0.419411 -0.97981 -0.197044 0.0338457 100 98 102
4.15773 5.62225 0.209597 -0.198124 -0.966911 -0.160714 166 187 197
4.26881 5.60214 0.192112 0.31458 -0.943408 0.104981 132 152 164
5.4355 6.34185 0.302801 -0.969713 -0.165986 -0.179181 102 106 113
3.87558 5.61445 0.15322 0.228467 -0.82227 0.521224 153 179 192
4.27215 5.6066 0.130304 0.324718 -0.941611 0.0890284 153 170 179
5.4447 6.86212 0.338556 -0.977005 -0.206227 0.0541462 107 111 112
5.42215 6.73399 0.331775 -0.943712 -0.212738 -0.253279 105 108 109
5.42215 6.73399 0.331775 -0.943712 -0.212738 -0.253279 105 108 109
4.22129 5.59012 0.100723 0.0698589 -0.997 -0.0333418 155 174 185
4.45771 5.75811 0.103461 0.277297 -0.951283 0.134788 141 146 150
5.40988 6.59656 0.222249 -0.971534 -0.203512 -0.121259 105 112 115
5.40251 6.55766 0.218184 -0.953016 -0.251845 -0.168329 105 112 115
5.44636 6.65857 0.239945 -0.966336 -0.183246 -0.1806 106 114 116
4.27702 5.61734 0.0683927 0.44553 -0.889875 -0.0981103 163 179 187
4.22072 5.58996 0.0447165 0.269741 -0.958055 -0.0967977 133 151 161
4.5459 5.84304 0.0814334 0.0182702 -0.834554 0.550623 134 134 135
5.17322 6.62816 0.176192 -0.965498 -0.163947 0.202324 70 72 69
5.2349 6.53354 0.175379 -0.592186 -0.430205 0.681351 103 107 108
4.22035 5.59473 -0.0154596 0.298293 -0.953565 -0.0416459 151 167 176
4.27531 5.61902 -0.000739051 0.439325 -0.895619 -0.0697159 132 147 155
5.1648 6.5465 0.0944053 -0.190078 -0.897861 0.397135 88 83 75
5.24011 6.42988 0.100281 -0.830495 -0.537139 -0.14751 117 123 124
4.17103 5.58536 -0.0464842 -0.0311941 -0.998688 0.0406015 158 178 187
4.27519 5.62397 -0.0692295 0.454304 -0.890795 0.00960441 165 180 187
5.12107 6.49063 0.0118373 -0.476194 -0.873913 0.0975468 109 79 61
5.12107 6.49063 0.0118373 -0.476194 -0.873913 0.0975468 109 79 61
5.2299 6.46494 0.0188762 -0.942502 -0.314406 -0.113311 141 141 138
5.31309 6.33623 0.00767287 -0.970231 -0.202059 0.133511 123 128 132
4.17387 5.58656 -0.135 -0.121878 -0.986167 0.112342 138 158 166
4.22123 5.59569 -0.103848 0.32215 -0.945306 -0.0511494 166 184 192
4.27553 5.62438 -0.138959 0.44522 -0.895043 -0.0260337 139 153 161
5.2392 6.38172 -0.0637614 -0.915775 -0.397149 -0.0602452 129 124 119
5.28986 6.34957 -0.0622278 -0.849165 -0.518372 -0.10104 135 137 141
4.12988 5.59406 -0.16202 -0.171345 -0.984671 0.0326231 180 200 209
4.22179 5.598 -0.174258 0.332042 -0.937592 0.103296 128 145 153
4.22511 5.60593 -0.165107 0.289627 -0.957139 -0.000379227 131 148 156
4.17756 5.58988 -0.202177 0.177878 -0.982851 0.0486138 166 184 192
4.27476 5.62373 -0.208035 0.458401 -0.888388 -0.0251871 151 162 168
4.61677 5.99292 -0.127574 0.155007 -0.958948 0.237469 116 97 93
5.16544 6.52969 -0.0627955 -0.664974 -0.737777 -0.11617 118 79 57
5.22349 6.40506 -0.139841 -0.924196 -0.377057 -0.06074 124 96 76
5.24037 6.435 -0.139828 -0.644748 -0.502752 0.575795 123 97 78
5.26681 6.3531 -0.139244 -0.878493 -0.46552 -0.107433 139 140 135
4.22927 5.60428 -0.235759 0.336943 -0.938228 0.0787262 159 172 179
4.17902 5.58965 -0.259491 0.184544 -0.98282 0.00298559 166 182 191
4.22553 5.60854 -0.244226 0.339433 -0.939822 -0.0389868 164 176 184
5.20214 6.52659 -0.139066 -0.720025 -0.691455 0.0587704 128 83 55
5.3188 6.40171 -0.213001 -0.886711 -0.462311 -0.00359151 122 132 125
5.31847 6.40076 -0.213028 -0.879476 -0.47594 0.00193758 122 132 125
5.32047 6.39538 -0.213378 -0.813443 -0.579243 0.0528025 123 136 130
5.32047 6.39538 -0.213378 -0.813443 -0.579243 0.0528025 123 136 130
5.35865 6.31195 -0.213947 -0.967966 -0.214137 0.131101 151 178 187
4.18095 5.58913 -0.265137 0.188169 -0.980607 -0.054798 165 181 189
4.22447 5.60743 -0.310832 0.356894 -0.92887 -0.0991267 145 156 163
4.40375 5.78086 -0.298067 0.454613 -0.890669 -0.00598473 138 138 140
5.22437 6.49595 -0.202554 -0.96889 -0.229704 -0.0921356 135 88 56
5.24726 6.37441 -0.216077 -0.92167 -0.384549 -0.0514342 128 103 81
5.24446 6.36562 -0.216247 -0.867759 -0.496213 -0.0276782 127 104 82
5.31927 6.32895 -0.285495 -0.942552 -0.309473 0.125788 120 91 90
5.34096 6.25425 -0.278195 -0.982396 -0.184141 0.0314584 145 135 147
5.41151 6.29674 -0.278485 -0.9835 -0.178843 0.027264 147 144 157
5.41445 6.28746 -0.281744 -0.983498 -0.175442 0.0441756 147 142 155
5.34968 6.26387 -0.281439 -0.973942 -0.212297 0.0797919 144 127 140
5.4247 6.31379 -0.281816 -0.981818 -0.182102 0.0535899 147 141 155
5.4247 6.31379 -0.281816 -0.981818 -0.182102 0.0535899 147 141 155
5.41151 6.29674 -0.278485 -0.9835 -0.178843 0.027264 147 144 157
4.14336 5.60046 -0.365405 0.0151428 -0.999079 -0.0401354 167 183 192
5.27776 6.37746 -0.286253 -0.962288 -0.270692 -0.0269628 138 99 76
4.14341 5.59772 -0.419911 0.00456192 -0.99841 0.0561875 168 184 192
4.19039 5.6006 -0.392493 0.110142 -0.988146 -0.106937 150 162 169
4.19092 5.60092 -0.392852 0.104293 -0.990247 -0.0923845 150 162 169
4.37813 5.76713 -0.410476 -0.0790002 -0.983714 -0.161446 141 142 144
5.18541 6.35541 -0.367287 -0.941567 -0.335778 0.0265512 148 97 59
5.31759 6.26229 -0.365744 -0.981528 -0.190933 -0.0121368 126 48 43
4.14186 5.59483 -0.481665 0.0823414 -0.996505 -0.0140199 138 155 161
4.1937 5.61338 -0.449249 0.321479 -0.944334 -0.0698857 168 180 186
4.24596 5.63935 -0.479836 0.463823 -0.884166 -0.0558456 131 139 144
2.29706 6.30944 -0.329392 0.713593 -0.699714 -0.0344469 100 125 132
4.19368 5.61785 -0.51133 0.353788 -0.929768 -0.101813 129 142 147
4.5994 5.95447 -0.516224 0.432477 -0.900262 0.0499169 31 23 22
5.12345 6.06629 -0.548171 -0.587111 -0.431701 -0.684788 153 93 48
4.09555 5.60194 -0.562704 0.0619293 -0.990983 -0.118816 165 184 192
4.14297 5.60102 -0.59033 -0.0379709 -0.998927 -0.0265207 165 181 189
4.81546 5.94992 -0.563151 -0.426336 -0.507757 0.748612 159 103 58
1.13359 7.21016 -0.353234 0.164285 -0.567109 0.807092 108 132 133
4.09578 5.60578 -0.617737 -0.0111501 -0.993975 -0.109037 136 154 163
4.14167 5.60219 -0.644113 -0.0594741 -0.997271 -0.0437436 155 170 178
4.5037 5.8507 -0.638514 0.0143812 -0.97262 -0.231956 50 41 39
4.58629 5.92256 -0.622464 0.167299 -0.949015 0.267172 29 22 20
4.8376 5.92203 -0.615076 -0.584473 -0.811399 0.00485083 159 102 55
4.78631 5.82074 -0.659527 -0.959431 -0.277121 -0.0519207 159 98 50
0.873033 7.09453 -0.376437 0.208426 -0.559547 0.802163 111 132 132
0.962318 7.04597 -0.420929 0.198957 -0.557422 0.806038 95 120 122
1.03833 7.1613 -0.372542 0.0693512 -0.559061 0.826221 107 131 133
1.46599 7.2105 -0.379269 0.0708443 -0.56443 0.822435 109 131 134
1.46508 7.11136 -0.442923 0.0818075 -0.560194 0.824312 96 122 128
4.09418 5.5984 -0.67223 -0.0298225 -0.998781 -0.0393451 132 149 156
4.57536 5.88375 -0.674445 0.138328 -0.753026 0.643287 30 21 18
4.48901 5.79564 -0.692072 -0.406456 -0.90495 -0.125933 46 34 33
4.64105 5.86515 -0.709534 -0.540283 -0.711688 0.448993 37 21 13
4.77646 5.83942 -0.67235 -0.795621 -0.581228 0.170768 156 94 46
1.36985 7.06523 -0.468128 0.0922411 -0.555654 0.826281 102 126 129
1.7025 7.04369 -0.501394 0.0974552 -0.559813 0.822868 127 148 148
4.83726 5.77377 -0.734579 -0.517016 -0.318453 0.794533 159 99 49
0.872614 6.90952 -0.500518 0.150046 -0.545606 0.8245 126 148 150
1.04622 6.88801 -0.523372 0.145201 -0.547494 0.824116 120 142 145
4.53592 5.82263 -0.815175 -0.526799 -0.846363 -0.0784382 29 18 15
4.65003 5.84451 -0.785235 -0.829724 -0.535522 0.157395 35 19 14
4.69531 5.79974 -0.786408 -0.793511 -0.574447 0.200875 56 23 8
4.75851 5.82108 -0.793453 -0.792232 -0.591981 0.148079 113 60 25
4.80844 5.79097 -0.795895 -0.660347 -0.728294 0.183113 157 95 46
1.79563 6.69548 -0.686527 0.221928 -0.563732 0.795584 115 136 136
4.05764 5.63048 -0.855515 -0.0316219 -0.988029 -0.15099 158 173 178
4.10908 5.61593 -0.8098 -0.0567539 -0.982913 -0.175105 163 176 180
4.67901 5.81511 -0.859537 -0.941174 -0.335867 -0.0372087 39 22 13
4.66011 5.76075 -0.886067 -0.549303 -0.230652 0.80316 37 21 12
4.72937 5.82985 -0.869618 -0.939682 -0.335578 -0.0662277 47 21 8
4.76829 5.76963 -0.846272 -0.952668 -0.289217 -0.0936813 125 70 32
4.82734 5.7697 -0.850597 -0.702077 -0.68536 0.193313 159 92 41
4.79102 5.68054 -0.845526 -0.956523 -0.288707 -0.0413704 157 94 47
1.92743 6.73862 -0.725695 0.246075 -0.568131 0.785286 98 120 122
4.00783 5.61529 -0.872825 0.245104 -0.951702 -0.184896 165 182 187
4.10815 5.62478 -0.866948 -0.0797894 -0.990165 -0.114921 129 142 146
4.69176 5.76607 -0.929277 -0.955028 -0.290657 -0.0586485 45 27 18
4.69176 5.76607 -0.929277 -0.955028 -0.290657 -0.0586485 45 27 18
4.69176 5.76607 -0.929277 -0.955028 -0.290657 -0.0586485 45 27 18
4.74176 5.7705 -0.938819 -0.955619 -0.286018 -0.0706117 61 31 13
4.78318 5.74701 -0.94582 -0.958547 -0.278719 -0.0591837 112 62 27
4.82211 5.69571 -0.924429 -0.935682 -0.347016 -0.0638629 159 94 47
1.72147 6.50066 -0.79381 0.00118933 -0.512642 0.858602 117 135 133
4.00715 5.63578 -0.941196 0.104499 -0.976645 -0.187736 131 146 153
4.05867 5.64537 -0.912556 0.0791987 -0.955106 -0.285482 172 187 193
4.10364 5.62892 -0.940995 -0.177517 -0.938968 -0.294662 174 188 193
4.10578 5.63414 -0.941821 -0.170848 -0.944078 -0.282006 175 188 193
4.16986 5.65966 -0.97297 0.096649 -0.976533 -0.192466 149 158 162
4.21322 5.64455 -0.942576 0.350294 -0.929334 -0.116758 139 145 148
4.70447 5.70375 -0.998817 -0.960042 -0.272132 -0.0653004 50 28 16
4.70578 5.70639 -0.999209 -0.955298 -0.289194 -0.0614169 49 27 16
4.70447 5.70375 -0.998817 -0.960042 -0.272132 -0.0653004 50 28 16
4.70578 5.70639 -0.999209 -0.955298 -0.289194 -0.0614169 49 27 16
4.70447 5.70375 -0.998817 -0.960042 -0.272132 -0.0653004 50 28 16
4.70578 5.70639 -0.999209 -0.955298 -0.289194 -0.0614169 49 27 16
4.84446 5.67373 -0.995609 -0.937916 -0.343919 -0.0450968 162 97 47
1.72366 6.44618 -0.848028 0.135746 -0.528635 0.837925 124 141 139
3.04986 5.97749 -0.923744 0.304032 -0.669276 -0.677963 130 156 164
3.99788 5.65682 -0.998901 0.118016 -0.926007 -0.358585 166 182 187
4.05986 5.65999 -0.970291 -0.00406357 -0.929005 -0.370046 138 153 159
4.1025 5.64989 -0.998896 -0.303121 -0.890307 -0.33981 153 166 171
4.17346 5.66115 -0.97685 0.107453 -0.967668 -0.228193 145 154 157
4.22777 5.6842 -1.00619 0.29711 -0.954542 -0.023999 133 139 143
4.75912 5.73098 -1.01299 -0.958647 -0.282537 -0.0341932 67 33 12
4.75876 5.73013 -1.01315 -0.963763 -0.259781 -0.0606255 67 33 12
4.75876 5.73013 -1.01315 -0.963763 -0.259781 -0.0606255 67 33 12
4.75876 5.73013 -1.01315 -0.963763 -0.259781 -0.0606255 67 33 12
1.63684 6.26905 -0.925805 0.143751 -0.51648 0.844147 123 140 137
2.7662 6.06323 -0.946274 0.324729 -0.942113 -0.0835095 145 167 177
4.01093 5.68496 -1.0586 0.34368 -0.835131 -0.429464 144 158 163
4.05791 5.67947 -1.02833 -0.2913 -0.863582 -0.411546 149 164 169
4.12273 5.67495 -1.05663 -0.237273 -0.875276 -0.421419 136 147 152
4.17123 5.67905 -1.03427 0.00111536 -0.972586 -0.232542 140 150 154
4.2284 5.68889 -1.06952 0.236543 -0.959686 -0.15182 158 166 169
4.71999 5.6669 -1.07169 -0.955046 -0.292446 -0.0486052 52 26 13
4.71999 5.6669 -1.07169 -0.955046 -0.292446 -0.0486052 52 26 13
4.71999 5.6669 -1.07169 -0.955046 -0.292446 -0.0486052 52 26 13
4.76242 5.65185 -1.08118 -0.931833 -0.355033 -0.0750963 73 35 10
4.80036 5.61014 -1.08597 -0.939581 -0.327276 -0.10039 131 73 33
1.71077 6.22737 -0.958874 0.157812 -0.517826 0.840804 113 130 130
3.91065 5.69416 -1.0913 -0.496783 -0.747613 -0.440774 149 166 171
3.95634 5.68203 -1.1053 0.438426 -0.854601 -0.278281 135 151 156
4.06943 5.7068 -1.07863 -0.290155 -0.854289 -0.431279 164 177 182
4.11668 5.69332 -1.11482 -0.371917 -0.853377 -0.365274 167 179 183
4.18007 5.70574 -1.10581 0.0665614 -0.900042 -0.430689 156 166 169
4.42096 5.78394 -1.13123 0.282238 -0.906278 -0.314646 92 86 88
1.23501 6.08224 -1.0099 0.0517299 -0.484896 0.873041 117 136 138
2.84537 5.99984 -1.10866 0.57753 -0.815382 0.0401471 109 130 133
3.02975 6.06323 -1.10581 -0.283253 -0.742478 0.607037 123 146 153
2.98088 6.0442 -1.12056 0.161599 -0.691134 0.704428 129 149 155
4.06514 5.72828 -1.13695 -0.433995 -0.852116 -0.292485 136 149 153
4.10964 5.70789 -1.16133 -0.497505 -0.80896 -0.313164 138 151 154
4.20489 5.71759 -1.18811 0.269179 -0.833122 -0.483167 158 168 170
4.06646 5.75137 -1.19698 -0.190434 -0.95202 -0.23957 150 164 168
4.11178 5.72666 -1.22286 -0.453652 -0.877556 -0.155226 144 157 160
4.17275 5.75124 -1.21061 0.0957208 -0.896627 -0.432316 159 170 173
2.52625 5.93136 -1.17933 -0.0248878 -0.617113 0.786481 122 138 140
2.60025 5.98906 -1.16265 0.134111 -0.52848 0.838286 127 144 145
4.2148 5.78554 -1.27355 0.338517 -0.829196 -0.444793 132 141 146
4.21179 5.77824 -1.26833 0.361669 -0.839864 -0.404753 135 144 148
4.26899 5.81049 -1.30144 0.0855364 -0.977155 -0.194555 134 144 148
4.26952 5.8104 -1.30061 0.0824749 -0.973164 -0.214826 134 144 148
4.34606 5.81472 -1.31585 0.258363 -0.965804 -0.0217075 161 172 177
4.32057 5.79536 -1.26729 0.217259 -0.870343 -0.44193 158 167 170
4.52522 5.8694 -1.32002 0.302817 -0.915873 -0.263588 108 107 111
2.52613 5.86989 -1.22472 0.0510775 -0.608348 0.792025 133 149 150
3.38747 5.81413 -1.31199 -0.236395 -0.40613 0.882709 130 146 148
4.1568 5.79378 -1.30834 0.11689 -0.924267 -0.363411 137 149 155
4.20753 5.7976 -1.33822 0.185702 -0.982327 -0.0234257 136 147 155
4.21685 5.8141 -1.33798 0.266478 -0.95256 -0.147033 138 150 157
4.26823 5.81421 -1.36512 0.220246 -0.969012 -0.11184 140 151 157
4.25751 5.79583 -1.36637 0.220069 -0.974889 -0.0340797 141 152 158
4.66885 5.89744 -1.3726 0.357187 -0.816051 0.454399 96 84 73
3.89841 5.75312 -1.38247 0.154115 -0.699746 0.69757 108 121 122
4.10442 5.7721 -1.39053 0.143613 -0.856918 0.495043 70 90 102
4.15856 5.79679 -1.36771 0.0686516 -0.990222 0.121437 79 95 106
4.21116 5.78859 -1.39773 0.0882127 -0.897495 0.432113 138 152 160
3.85066 5.74691 -1.39414 -0.0637367 -0.850459 0.522166 120 131 132
3.95612 5.73239 -1.41647 0.238815 -0.718029 0.65376 149 159 163
4.05251 5.76129 -1.41612 0.25747 -0.666897 0.699255 78 97 106
4.10629 5.75192 -1.44715 0.256945 -0.808452 0.529514 86 108 117
4.15877 5.76659 -1.42228 0.197209 -0.911608 0.360666 81 101 111
3.83517 5.71566 -1.4514 0.023528 -0.864645 0.501832 141 152 153
3.90579 5.69687 -1.5006 0.120298 -0.964853 0.233638 146 153 154
3.95595 5.70987 -1.46963 0.0621265 -0.927051 0.369753 125 133 137
4.00365 5.69949 -1.49597 0.105762 -0.990592 0.0868421 91 101 108
4.05531 5.72455 -1.47164 0.18025 -0.950162 0.254368 93 110 117
4.15869 5.74348 -1.47937 0.192779 -0.920365 0.340242 100 116 122
4.10828 5.72857 -1.50597 0.125461 -0.959444 0.252443 149 161 165
0.454383 5.51325 -1.27462 0.675302 -0.45638 0.579382 140 154 154
0.752458 5.61344 -1.29283 0.522905 -0.472541 0.709419 114 129 128
2.7677 5.65192 -1.43662 0.286221 -0.568661 0.771169 70 91 102
3.95353 5.68783 -1.52331 0.167998 -0.977007 -0.13128 139 146 149
4.00024 5.69139 -1.56103 -0.160588 -0.955592 -0.247096 142 149 152
4.00432 5.69894 -1.55432 0.0114103 -0.996059 -0.0879621 137 144 147
4.05596 5.71337 -1.52969 0.298421 -0.950935 -0.0816545 142 152 156
4.10623 5.7058 -1.55993 0.168249 -0.985525 0.0208191 95 101 104
4.10313 5.70738 -1.5527 -0.0564247 -0.998404 0.00253818 100 107 110
4.15959 5.72574 -1.53752 0.283271 -0.950669 0.126434 143 151 154
0.872734 5.49116 -1.383 0.725581 -0.595733 0.344432 137 151 151
3.8409 5.67669 -1.58528 0.127623 -0.989492 -0.0679495 118 127 128
3.90194 5.68808 -1.55669 0.149825 -0.98833 -0.0275051 95 104 107
3.94394 5.69386 -1.58459 0.170736 -0.983714 -0.0561889 116 126 128
4.05162 5.7016 -1.589 0.318545 -0.935162 -0.15492 127 132 135
4.10295 5.70812 -1.61385 0.131194 -0.986587 -0.097131 120 126 126
3.74222 5.68155 -1.64994 0.214338 -0.956515 -0.197835 113 118 116
3.79102 5.67785 -1.61722 0.129552 -0.990813 -0.0388173 124 131 129
3.89244 5.68747 -1.61561 0.139857 -0.989715 -0.0300685 108 117 120
3.84175 5.68243 -1.64594 0.13905 -0.990174 -0.0148661 129 135 135
3.93924 5.70813 -1.65835 0.141432 -0.971582 -0.1898 129 136 135
3.94456 5.70057 -1.64674 0.136552 -0.976228 -0.168321 129 136 135
4.0006 5.70845 -1.62168 -0.278597 -0.907355 -0.314786 121 128 128
4.1047 5.72095 -1.67748 0.159222 -0.966991 -0.198941 139 147 148
3.7939 5.68936 -1.68013 0.172797 -0.933991 -0.312733 99 104 104
3.8947 5.69937 -1.67838 0.115812 -0.972917 -0.200048 140 144 144
3.84558 5.70113 -1.71105 0.0887536 -0.939578 -0.330631 128 132 132
3.9369 5.71043 -1.71874 0.130159 -0.991026 -0.0304478 141 144 143
3.99466 5.72331 -1.68832 0.168891 -0.96745 -0.188456 86 94 94
4.04981 5.72648 -1.71343 0.156596 -0.946457 -0.282306 74 86 89
3.79475 5.71526 -1.74663 0.0933251 -0.932652 -0.348499 139 144 145
3.88892 5.72122 -1.75478 0.109449 -0.974342 -0.196669 95 98 98
3.99559 5.74693 -1.75583 0.135267 -0.939054 -0.316039 143 147 149
3.99758 5.74796 -1.75636 0.14082 -0.932749 -0.331886 141 145 148
4.05433 5.76437 -1.78576 0.0832968 -0.855406 -0.511217 94 100 103
4.11213 5.75849 -1.74828 0.305313 -0.873936 -0.37818 73 83 88
3.77535 5.80109 -1.79389 0.192037 -0.962686 -0.190676 104 111 116
3.8523 5.72091 -1.77318 0.176757 -0.865668 -0.468376 108 110 110
3.92077 5.74875 -1.80206 0.229986 -0.820368 -0.523548 129 131 129
3.9446 5.74569 -1.7906 0.11381 -0.871975 -0.476136 135 138 136
3.93457 5.74703 -1.79057 0.139338 -0.85633 -0.497277 132 134 133
3.93634 5.75091 -1.79253 0.135921 -0.841257 -0.52327 132 135 133
3.98376 5.78817 -1.82748 0.0905014 -0.820631 -0.564247 117 118 116
3.99862 5.78207 -1.8269 0.0861071 -0.809465 -0.58082 113 113 111
4.12688 5.79188 -1.81892 0.0661828 -0.839819 -0.538817 102 108 108
3.8293 5.81938 -1.88899 0.0922175 -0.898364 -0.429463 112 115 112
3.8955 5.80224 -1.84973 0.130196 -0.814738 -0.565022 130 130 127
3.94792 5.79886 -1.86659 0.0363905 -0.782614 -0.621443 128 125 120
3.99994 5.84188 -1.9045 0.00889015 -0.797624 -0.603089 134 130 126
4.05437 5.80752 -1.85776 0.101436 -0.829677 -0.54895 117 115 112
4.07858 5.81369 -1.86023 0.0804772 -0.858276 -0.506839 123 121 118
4.13481 5.84861 -1.89455 0.112355 -0.793032 -0.598729 132 131 126
4.1579 5.86256 -1.90189 0.168965 -0.800447 -0.575096 132 132 126
5.27877 6.24236 -2.06276 -0.913402 -0.397344 -0.0883971 105 105 93
5.22256 6.19805 -2.04475 -0.894821 -0.122243 0.429363 101 99 84
4.05933 5.9138 -2.01168 0.214922 -0.814999 -0.538132 94 86 78
4.13314 5.91308 -1.98436 0.170084 -0.804287 -0.56938 112 104 95
4.21065 5.90473 -2.00234 0.147314 -0.870437 -0.469722 123 108 97
4.37243 6.01563 -2.06514 -0.531533 -0.840273 -0.106835 104 70 55
4.44777 5.99843 -2.02807 -5.0256e-005 -0.88082 -0.473452 84 71 65
5.27293 6.33246 -2.16426 -0.86966 -0.492505 -0.0336245 106 103 91
5.22341 6.23567 -2.1569 -0.876289 -0.113557 0.468211 105 102 90
5.25432 6.37361 -2.21434 -0.567572 -0.119479 0.814608 104 100 89
4.31854 6.1788 -2.18655 -0.525335 -0.616683 -0.586281 104 51 20
4.3625 6.17127 -2.1733 -0.790222 -0.491237 -0.36638 103 50 22
4.36285 6.11544 -2.14617 -0.874063 -0.429037 -0.227904 104 50 22
4.396 6.11185 -2.18631 -0.639266 -0.567422 -0.51901 103 50 19
4.43849 6.15447 -2.16826 -0.89248 -0.424283 -0.153179 104 50 23
5.19983 6.38116 -2.24452 -0.747693 -0.623249 0.229165 98 94 81
3.24101 5.92536 -2.08897 -0.0514928 -0.801802 -0.595367 75 55 46
4.32812 6.28288 -2.28132 -0.254515 -0.792786 -0.553816 103 56 25
5.20022 6.47676 -2.33242 -0.96611 -0.257715 -0.0146602 97 94 81
5.19364 6.50046 -2.34231 -0.968024 -0.250569 0.0120025 96 92 77
5.20022 6.47676 -2.33242 -0.96611 -0.257715 -0.0146602 97 94 81
5.1774 6.3569 -2.30746 -0.959546 -0.170762 0.223857 101 97 85
5.21542 6.36531 -2.31173 -0.969673 -0.239176 -0.0502789 105 101 91
5.1774 6.3569 -2.30746 -0.959546 -0.170762 0.223857 101 97 85
5.28274 6.35885 -2.34529 -0.969351 -0.241324 -0.0460634 109 107 97
2.16074 5.65646 -2.05532 0.709853 -0.679467 0.185564 115 106 98
3.51403 6.24986 -2.23123 -0.642957 -0.626961 -0.439916 102 51 24
5.17748 6.56916 -2.42355 -0.572771 -0.817207 -0.0640807 96 85 69
5.20693 6.4511 -2.40762 -0.847024 -0.114376 0.519104 108 104 95
5.21785 6.437 -2.42425 -0.96437 -0.263777 -0.0202955 108 105 97
5.1505 6.59902 -2.49027 -0.370484 -0.871472 -0.32137 100 79 60
5.21704 6.5027 -2.50371 -0.9479 -0.314789 -0.0489183 106 102 92
3.23164 6.48857 -2.39436 0.28776 -0.805947 -0.517343 109 60 28
3.47247 6.42069 -2.38063 0.0541692 -0.749278 -0.660037 102 54 23
3.7678 6.52399 -2.44069 -0.154299 -0.746783 -0.646922 113 65 31
4.13548 6.73369 -2.50948 0.0774422 -0.772881 -0.629807 117 68 33
4.05458 6.51717 -2.43295 0.211313 -0.817587 -0.535629 113 66 31
4.29268 6.87212 -2.56784 0.144445 -0.801451 -0.580355 124 74 38
5.2032 6.47845 -2.50993 -0.962607 -0.266399 -0.0491942 106 102 92
4.02281 6.69167 -2.54308 0.0154753 -0.751874 -0.659125 134 92 58
4.51895 7.09272 -2.70706 -0.651382 -0.750654 -0.110544 138 101 72
2.50147 6.13919 -2.3742 0.127489 -0.803081 -0.582072 106 66 36
2.93005 6.39245 -2.46351 0.448867 -0.803786 -0.390443 115 71 39
3.06716 6.55536 -2.52444 -0.642328 -0.656 -0.396332 126 80 47
3.39822 6.7015 -2.5579 -0.613015 -0.783349 -0.102844 121 74 39
4.13767 7.04771 -2.70793 -0.234932 -0.85184 -0.468162 149 122 102
4.1759 6.97312 -2.69313 0.477758 -0.861551 -0.171688 151 128 109
4.51535 7.17972 -2.74185 -0.799959 -0.580243 -0.152916 136 101 72
4.56727 7.11758 -2.78463 -0.873366 -0.485853 0.0343396 116 83 62
4.57709 7.15531 -2.75764 -0.939916 -0.34139 0.00312218 129 96 73
4.59236 7.07039 -2.71812 -0.543405 -0.807055 0.231028 116 72 44
2.92795 6.4042 -2.53368 0.456204 -0.807287 -0.374387 140 111 89
3.01472 6.62396 -2.58961 0.135445 -0.773499 -0.619156 141 108 84
3.34614 6.74803 -2.62531 0.196287 -0.792749 -0.57708 126 90 64
3.92892 7.10111 -2.76132 -0.793286 -0.543059 -0.27529 148 127 114
3.97036 6.9657 -2.72447 -0.140306 -0.750404 -0.645916 145 125 112
4.26521 7.10642 -2.76451 0.298056 -0.846959 -0.440253 144 123 108
4.35343 7.07998 -2.81511 -0.0551716 -0.286714 0.956426 125 103 85
4.63402 7.12025 -2.81145 -0.837196 -0.546024 0.0310004 100 52 24
4.70236 7.12333 -2.83899 -0.938688 -0.344685 -0.00755906 104 48 15
2.60997 6.52891 -2.58061 0.134885 -0.75171 -0.645553 147 123 104
2.84878 6.61899 -2.6276 0.0797244 -0.753107 -0.65305 150 130 113
2.83522 6.59645 -2.61268 0.149049 -0.762691 -0.629354 150 129 111
3.21761 6.76518 -2.70036 0.0799376 -0.964274 -0.252557 140 117 101
4.00476 7.2548 -2.86458 0.124063 -0.792131 -0.597609 135 116 106
4.66761 7.15025 -2.87781 -0.926115 -0.37715 0.00824437 102 49 16
2.31923 6.59984 -2.62354 0.108584 -0.754273 -0.647519 150 130 116
2.84776 6.70635 -2.69453 0.362891 -0.796158 -0.484193 149 134 124
4.60506 7.30044 -2.97094 -0.843639 -0.53579 -0.0346758 105 62 32
2.76614 6.77406 -2.78517 0.430698 -0.797927 -0.421677 147 137 129
4.47946 7.34895 -3.04535 -0.798274 -0.594878 0.0942292 127 85 50
-0.303061 6.61483 -2.62198 0.806822 -0.548996 -0.21827 87 39 6
1.28147 5.79691 -2.52305 0.598495 -0.482989 0.639159 90 48 15
1.58685 6.89523 -2.88197 0.267101 -0.96323 -0.0290846 99 64 27
4.37164 7.17211 -3.14016 -0.876444 -0.224261 0.426091 133 86 42
1.29567 5.51236 -2.49663 0.438479 -0.342276 0.831014 104 64 26
1.28613 5.64516 -2.54336 0.599241 -0.482581 0.638769 105 64 26
1.45685 6.24302 -2.70401 0.730354 -0.472765 0.493028 103 67 31
3.22743 6.96345 -3.04804 0.0977598 -0.79239 -0.602131 132 90 52
4.28546 7.11911 -3.1691 -0.886443 -0.242542 0.394199 134 86 41
4.26063 6.9363 -3.1057 -0.910668 -0.272421 0.310598 135 87 41
1.4634 6.18405 -2.76577 0.704222 -0.446439 0.552054 115 78 37
1.49718 6.16656 -2.73875 0.730002 -0.474248 0.492124 113 75 36
2.85883 7.54239 -3.24338 0.513103 -0.464728 0.721632 136 102 71
2.68948 7.05244 -3.19125 0.425515 -0.397787 0.812836 146 104 60
1.44093 6.30161 -2.89608 0.724377 -0.447196 0.524685 124 87 43
2.71274 6.97283 -3.22684 0.364111 -0.361979 0.858134 142 95 48
2.78828 7.08946 -3.24774 0.337487 -0.35336 0.87249 145 98 51
-0.839915 6.83855 -2.98811 0.921229 -0.236868 0.308595 101 59 20
1.36997 5.71481 -2.75511 0.644336 -0.471082 0.602423 131 93 52
4.14634 6.86763 -3.37144 -0.892606 -0.255047 0.371761 149 104 56
-1.3879 7.03195 -3.04679 0.963086 -0.209774 0.168701 108 65 26
1.54386 6.41192 -3.06302 0.701125 -0.432999 0.566512 136 98 56
1.54386 6.41192 -3.06302 0.701125 -0.432999 0.566512 136 98 56
1.54386 6.41192 -3.06302 0.701125 -0.432999 0.566512 136 98 56
1.54386 6.41192 -3.06302 0.701125 -0.432999 0.566512 136 98 56
1.60123 6.51851 -3.07722 0.723852 -0.461207 0.513154 135 97 54
1.60123 6.51851 -3.07722 0.723852 -0.461207 0.513154 135 97 54
1.60123 6.51851 -3.07722 0.723852 -0.461207 0.513154 135 97 54
1.60123 6.51851 -3.07722 0.723852 -0.461207 0.513154 135 97 54
2.84133 6.92585 -3.40353 0.570061 -0.490989 0.658757 146 99 52
2.84016 6.95482 -3.41656 0.576091 -0.494597 0.650764 146 98 53
2.75521 6.76403 -3.32483 0.655175 -0.755467 0.00394852 144 96 49
4.09472 6.93239 -3.46617 -0.868144 -0.228523 0.440572 151 106 57
4.14046 6.62198 -3.40039 -0.626776 -0.102764 0.772393 154 108 59
1.17818 6.65929 -3.23141 0.693319 -0.362637 0.622738 139 105 61
1.29464 6.75194 -3.2919 0.719657 -0.395447 0.570714 140 105 61
1.30024 6.76366 -3.29865 0.735122 -0.409163 0.540539 141 105 61
1.89912 6.72409 -3.31682 0.705002 -0.476195 0.525558 139 92 44
2.86831 6.67836 -3.3974 0.455027 -0.406678 0.792189 151 106 63
2.86831 6.67836 -3.3974 0.455027 -0.406678 0.792189 151 106 63
2.92193 6.74588 -3.38247 0.553528 -0.491986 0.67198 147 101 56
3.2218 6.63356 -3.39252 0.203171 -0.287924 0.935853 152 108 62
4.10224 6.51161 -3.40919 -0.2447 -0.102559 0.96416 157 112 65
4.17414 6.58206 -3.43854 -0.671269 -0.104597 0.733797 157 113 66
-0.736752 7.0319 -3.28317 0.864823 -0.207988 0.456971 122 79 36
0.349259 6.6523 -3.21404 0.847834 -0.348945 0.399268 130 91 48
0.38551 6.77771 -3.25367 0.870839 -0.387102 0.302971 129 90 48
1.24999 6.72544 -3.31343 0.671043 -0.353216 0.651874 140 104 59
1.24898 6.68224 -3.29707 0.734638 -0.395842 0.551013 140 104 59
1.84944 6.62477 -3.33733 0.0674333 -0.184655 0.980487 142 96 48
2.6273 6.63305 -3.37803 0.0656829 -0.200914 0.977404 149 104 60
3.529 6.55868 -3.45214 -0.817373 -0.191171 0.543466 155 110 62
0.447776 6.71816 -3.29705 0.83997 -0.35536 0.410084 134 96 54
1.32033 6.68475 -3.39811 0.149664 -0.185804 0.971122 138 100 54
1.32221 6.72938 -3.3709 0.63787 -0.361321 0.680124 139 101 55
1.79656 6.54843 -3.35021 0.554871 -0.349435 0.754993 143 100 53
2.04235 6.57905 -3.36378 0.366975 -0.287339 0.88474 146 104 55
2.81145 6.57725 -3.42662 0.368602 -0.341451 0.864606 152 109 66
1.27258 6.58866 -3.42559 0.180817 -0.181179 0.966685 144 106 60
6.62949 8.47794 4.63578 0.260665 -0.404168 -0.876756 193 196 192
6.66243 8.35433 4.60989 -0.117494 0.0150516 -0.992959 198 200 195
6.43253 7.97396 4.33058 0.418742 -0.503075 -0.756023 192 194 191
1.40543 6.90204 3.66843 0.641012 -0.74676 0.177348 186 203 200
6.55083 8.06982 4.33686 0.432115 -0.49423 -0.75433 192 194 191
-2.64557 7.16289 3.80361 0.74883 -0.630405 0.204554 201 215 213
0.368186 6.85147 3.52986 0.784698 -0.605062 0.13472 182 202 199
2.65122 6.83109 3.4999 0.353915 -0.0951877 -0.930421 185 205 201
7.14279 8.23669 4.35808 -0.734742 0.0210921 -0.678019 196 195 190
1.44992 6.87768 3.47045 0.742067 -0.668099 0.0545871 182 202 198
1.44791 6.85885 3.4617 0.688008 -0.713762 0.131106 182 202 198
1.63575 7.07561 3.57131 0.712247 -0.697674 0.0771713 182 202 198
2.81936 7.32725 3.7327 0.316239 -0.0983345 -0.943569 187 206 202
3.41688 7.35858 3.73635 0.438108 -0.876213 0.200781 188 206 201
1.49462 6.89824 3.43086 0.756922 -0.653041 0.024643 180 201 197
1.58603 6.86055 3.37655 0.679378 -0.721959 0.131226 182 202 197
1.58971 6.89703 3.39609 0.710281 -0.698269 0.0890004 182 202 197
2.86804 6.9848 3.4736 0.387292 -0.878083 0.281024 183 203 199
2.95674 7.03517 3.51466 0.389157 -0.879603 0.273597 182 202 198
3.50906 7.39375 3.67119 0.438767 -0.876281 0.199034 182 201 198
2.57787 6.78459 3.27781 0.476021 -0.179544 -0.860911 180 200 195
3.00596 7.05056 3.38683 0.479094 -0.222041 -0.849215 181 201 198
3.14685 7.17227 3.46738 0.510316 -0.256297 -0.820908 180 200 197
3.22576 7.23565 3.5245 0.651115 -0.414011 -0.636116 181 202 198
3.58834 7.42886 3.62866 0.352622 -0.894689 0.274207 180 199 196
3.3441 7.29988 3.52207 0.613176 -0.381568 -0.69168 181 201 198
3.43707 7.36075 3.51964 0.575092 -0.816795 0.0459962 180 200 197
3.64487 7.33221 3.49337 0.496979 -0.858321 0.127662 179 198 195
5.21197 7.61537 3.56561 0.442497 -0.896348 0.027498 182 189 188
5.19064 7.58072 3.55718 0.370419 -0.919153 0.133965 183 190 188
5.6638 7.18474 3.27914 0.460987 -0.559677 -0.68866 186 190 188
6.56374 7.294 3.35248 0.374191 -0.536001 -0.756758 188 188 185
6.55754 7.28595 3.3478 0.374886 -0.537178 -0.75558 188 188 185
2.76289 7.02134 3.19657 0.400635 -0.865346 0.30111 177 183 164
5.87036 7.36045 3.28657 0.440892 -0.549861 -0.709413 182 185 184
5.76565 7.27009 3.28308 0.444027 -0.54195 -0.713533 183 187 186
6.27967 7.06902 3.13543 0.420967 -0.622646 -0.65962 185 186 184
6.69165 7.41972 3.36222 0.403973 -0.611445 -0.680397 189 189 185
3.82294 7.43274 3.30062 0.189544 -0.948486 0.253864 178 181 157
5.66478 7.28906 3.20345 0.443962 -0.541874 -0.713632 180 182 174
6.46873 7.26469 3.18977 0.414232 -0.621121 -0.665297 186 187 184
6.46273 7.25664 3.18529 0.414451 -0.62185 -0.664479 186 187 184
7.46662 8.34171 3.73313 -0.968837 0.010109 -0.247492 189 188 185
2.69956 7.06307 3.0905 0.197471 -0.875883 0.440265 170 174 148
3.847 7.24258 3.15492 0.422168 -0.881809 0.210206 176 177 149
3.91263 7.25719 3.11716 0.251189 -0.89971 0.356969 159 162 135
3.98034 7.25756 3.16245 0.234452 -0.901896 0.36279 177 177 149
4.69276 7.62681 3.33849 0.277908 -0.960398 0.0200528 177 174 146
6.16232 7.66511 3.33878 0.306055 -0.941707 0.139707 183 186 180
6.19765 7.67575 3.35615 0.252032 -0.947378 0.197371 183 186 182
6.43989 7.38379 3.16619 0.362852 -0.52553 -0.769517 186 186 181
6.67566 7.48331 3.24504 0.436052 -0.701097 -0.5642 191 191 187
2.43322 6.68995 2.78681 0.133886 -0.867747 0.478634 170 177 157
2.70408 7.0581 2.95653 0.258578 -0.880907 0.39641 163 172 153
3.32065 7.03774 2.93345 -0.00393101 -0.861646 0.507495 164 172 150
3.91535 7.2962 3.1215 0.0721546 -0.966206 -0.247465 156 160 134
4.34925 7.42899 3.16414 0.342032 -0.922763 0.177547 154 154 125
5.8065 8.01959 3.44923 0.00919875 -0.99545 0.0948353 180 175 154
6.2269 7.62419 3.23111 0.228913 -0.94384 0.238254 184 183 174
6.19719 7.59519 3.19334 0.362585 -0.930699 0.0482816 183 180 165
7.45306 8.27492 3.52703 -0.992227 -0.0311428 -0.120478 188 188 183
2.73562 6.62548 2.69366 0.153874 -0.870225 0.468008 162 171 151
3.52266 6.63227 2.66554 0.308795 -0.900343 0.306639 167 176 156
5.13451 7.52077 3.07167 0.295576 -0.91551 -0.272903 158 157 132
5.33909 7.67133 3.15862 0.405513 -0.898325 -0.169033 155 151 122
5.53615 7.91621 3.3319 0.240623 -0.97003 0.0337932 171 164 134
5.56572 7.92099 3.33541 0.370323 -0.9236 -0.0991171 172 165 136
6.0425 7.61999 3.11726 0.185077 -0.941261 0.282445 183 175 150
6.6679 7.5998 3.12088 0.301407 -0.948385 0.0985887 183 181 173
1.3048 6.36587 2.51996 0.628973 -0.739538 0.239744 131 151 149
2.20455 6.45812 2.5358 0.393729 -0.849435 0.351337 149 161 147
2.97122 6.49841 2.52513 0.338061 -0.870705 0.357194 149 162 153
2.98218 6.56745 2.58898 -0.0033343 -0.854364 0.519664 148 160 146
3.06822 6.53983 2.53224 0.141639 -0.873301 0.466137 135 150 141
3.62289 6.60321 2.56995 0.228794 -0.890003 0.394396 152 161 150
3.77588 6.64017 2.604 0.200927 -0.893774 0.400993 152 161 148
6.18345 7.65056 3.09123 0.244266 -0.948171 0.203237 182 172 147
6.37831 7.67219 3.07463 0.178696 -0.942061 0.283881 184 175 150
6.30917 7.62092 3.03572 0.416691 -0.892354 -0.173416 181 172 143
6.30801 7.61899 3.03513 0.416635 -0.892388 -0.173376 181 172 143
6.35006 7.52805 2.97499 0.371519 -0.926643 -0.0574949 182 173 145
6.4382 7.53632 3.03368 0.351156 -0.935986 -0.0248809 182 178 164
6.55298 7.61095 3.03123 0.418929 -0.869391 -0.262027 182 176 159
6.68715 7.64544 3.03107 0.254888 -0.95235 0.167518 182 178 166
6.88922 7.76121 3.12281 0.253771 -0.952479 0.168479 183 178 166
7.43081 8.41681 3.41456 -0.993798 -0.0542366 -0.0970812 184 183 178
3.23363 6.53195 2.46655 0.623955 -0.536992 -0.567732 123 141 137
4.42674 6.75482 2.58118 0.00294957 -0.868642 0.495432 128 132 117
5.10394 7.43219 2.93072 0.516837 -0.848233 -0.115675 162 161 140
6.34872 7.53511 2.88749 0.216059 -0.930862 -0.294641 160 153 127
6.64147 7.63582 2.96703 0.292967 -0.947877 0.125301 180 172 147
6.77422 7.63379 2.94631 0.251845 -0.951987 0.174052 181 173 153
6.87836 7.72522 2.98237 0.267884 -0.951234 0.152946 181 174 156
6.85205 7.60799 2.90771 0.180909 -0.946037 0.268862 181 173 153
7.28091 7.58525 2.92166 -0.949662 -0.291918 -0.113691 186 185 180
4.62037 6.93665 2.57209 0.144752 -0.93017 0.337389 137 127 100
5.24705 7.43108 2.80443 0.459862 -0.541315 -0.703921 157 156 133
6.04311 7.55605 2.87502 0.26024 -0.959016 -0.112085 163 160 138
6.01827 7.51139 2.81572 0.220968 -0.348362 -0.910943 163 160 138
6.19247 7.66857 2.88442 0.223182 -0.966186 -0.129131 163 160 139
6.38839 7.59036 2.87738 0.0988347 -0.964232 -0.245943 162 156 133
6.4395 7.55965 2.86169 0.34598 -0.893701 -0.28565 161 154 131
6.62241 7.65492 2.86324 -0.0738917 -0.888705 -0.452485 159 152 127
6.68346 7.6207 2.89851 0.257423 -0.955359 0.144993 172 161 132
6.96716 7.62942 2.83532 -0.039078 -0.972813 -0.22827 177 166 141
7.06736 7.67517 2.90816 -0.763084 -0.640256 -0.0881806 178 172 160
7.08693 7.56451 2.80686 0.0324522 -0.966922 -0.252999 177 169 152
7.18805 7.58397 2.86781 0.02361 -0.962828 -0.269081 182 180 173
7.25322 7.56987 2.82126 -0.85551 -0.373315 -0.358802 183 181 173
3.54099 6.55941 2.35183 0.366566 -0.924532 0.104261 63 93 98
5.57213 7.57283 2.77862 0.333585 -0.425259 -0.841353 159 156 134
6.79432 7.6409 2.82962 0.0591034 -0.981186 -0.183796 156 146 119
6.84773 7.64133 2.81922 -0.00176218 -0.910075 -0.414439 160 150 122
7.0539 7.64303 2.79251 -0.0887663 -0.960981 -0.261986 174 162 135
7.18259 7.60058 2.76814 -0.26645 -0.716045 -0.6452 177 166 145
7.18741 7.58543 2.77977 -0.525407 -0.600389 -0.602893 176 167 150
7.32196 7.54654 2.73859 -0.877845 -0.230677 -0.419735 183 178 168
4.51668 6.7467 2.355 0.51231 -0.846669 -0.143838 133 122 100
6.98971 7.68925 2.76232 -0.0341012 -0.891309 -0.452112 149 139 114
7.08791 7.72924 2.72873 -0.433502 -0.30859 -0.846669 153 145 119
7.13768 7.65271 2.74774 0.00530567 -0.781167 -0.624299 170 159 131
7.1795 7.65696 2.69684 -0.761411 -0.215449 -0.61142 164 154 126
7.25231 7.60165 2.71353 -0.948318 -0.294374 -0.11848 178 166 142
3.53438 6.59352 2.22971 -0.323749 -0.937544 -0.127268 129 143 144
4.51495 6.74336 2.27686 0.494717 -0.868755 -0.0227883 129 117 96
5.45879 6.67338 2.19279 -0.708399 -0.100021 -0.698689 159 156 139
6.97757 7.66974 2.64805 0.0855487 -0.916879 0.38989 159 153 129
7.1945 7.72994 2.67463 -0.433405 -0.492218 -0.754905 159 150 125
7.25555 7.68257 2.62456 -0.993285 -0.0812064 -0.0824026 161 154 126
7.28691 7.6711 2.63635 -0.712843 -0.312349 -0.627927 162 155 125
7.33937 7.65034 2.65088 -0.900029 -0.431739 -0.0595746 168 156 127
5.4135 6.71298 2.15812 -0.887292 -0.0991072 -0.450434 155 153 136
7.42108 7.6967 2.59246 -0.986964 -0.150159 -0.0579198 164 153 126
2.20104 6.48866 2.06903 0.177945 -0.167742 -0.969638 110 129 128
4.6952 5.96925 1.76298 -0.00730573 -0.209395 -0.977804 134 123 96
3.94338 6.69626 2.03253 0.482067 -0.870244 0.101424 54 81 91
4.66798 6.20323 1.78778 0.0747189 -0.249491 -0.96549 126 104 75
4.94231 6.09312 1.74215 -0.905954 -0.373285 -0.199765 130 120 97
5.42015 6.38462 1.8593 -0.64621 -0.0710882 -0.759842 148 152 151
4.69391 6.94438 2.08319 0.5047 -0.86318 -0.0140721 121 99 79
4.73416 7.00296 2.1356 0.428919 -0.899678 0.0812846 120 98 77
4.97945 5.95968 1.64877 -0.950639 -0.228037 -0.21044 148 145 132
5.50209 6.39409 1.81951 -0.438455 -0.10258 -0.89288 157 155 159
4.73627 6.99855 2.00875 0.528565 -0.844886 -0.0823805 113 85 62
4.73175 6.99776 2.00386 0.523248 -0.849937 -0.0617952 113 85 63
5.60318 6.44911 1.78025 -0.855311 -0.0523066 -0.515468 150 150 152
5.67962 6.33275 1.70773 -0.875603 -0.0600805 -0.47928 155 137 137
5.66797 6.29219 1.68932 -0.960087 -0.255755 -0.113239 155 136 136
5.65962 6.32723 1.70506 -0.975697 -0.112686 -0.18793 155 142 141
6.80468 7.02989 1.95439 -0.546502 -0.0347038 -0.836739 163 135 133
6.56926 6.71779 1.82196 -0.652131 -0.0721131 -0.754669 148 114 112
-2.51606 5.99924 1.78366 -0.152452 -0.924269 0.349978 102 93 86
4.74183 7.0171 1.93789 0.545395 -0.823558 -0.155874 110 81 61
5.59517 6.42551 1.66185 -0.937551 -0.0841737 -0.337509 159 162 158
5.59608 6.42894 1.6616 -0.974271 -0.0679144 -0.214903 159 161 158
5.59517 6.42551 1.66185 -0.937551 -0.0841737 -0.337509 159 162 158
5.59608 6.42894 1.6616 -0.974271 -0.0679144 -0.214903 159 161 158
5.66688 6.1834 1.57454 -0.970035 -0.0965367 -0.222963 153 153 157
5.72152 6.24411 1.60457 -0.986521 -0.0639207 -0.150633 155 148 152
6.7291 6.77955 1.77587 -0.521492 -0.0349024 -0.852542 176 128 128
6.72136 6.77701 1.783 -0.992268 -0.106208 -0.0642226 172 131 129
-2.60864 5.9452 1.7087 0.752531 0.112673 -0.648846 132 94 60
5.57342 6.23856 1.51546 -0.970476 -0.104161 -0.217545 160 168 166
5.65856 6.05074 1.44961 -0.977844 -0.104444 -0.18142 150 155 161
6.20072 6.35104 1.5731 -0.983411 -0.0943674 -0.154909 175 102 115
6.70002 6.64825 1.65293 -0.967929 -0.128196 -0.216054 185 100 108
-2.60332 6.08074 1.70999 0.67067 -0.0536709 -0.739811 86 63 56
4.73505 7.02924 1.85154 0.55749 -0.755567 -0.343982 112 82 67
6.32946 6.4194 1.53445 -0.988725 -0.119179 -0.0906647 162 119 124
6.35493 6.40488 1.48208 -0.969162 -0.12252 -0.21381 151 129 129
6.31315 6.38621 1.5261 -0.975716 -0.119999 -0.183245 164 112 119
6.55444 6.57669 1.57956 -0.856544 -0.0845167 -0.509107 166 114 118
6.55004 6.57661 1.57246 -0.978819 -0.115873 -0.16878 164 113 117
6.3989 6.42491 1.49798 -0.977731 -0.11647 -0.174574 151 124 124
6.41297 6.4405 1.50896 -0.980423 -0.10975 -0.163481 151 123 123
4.11463 6.81307 1.6959 0.279256 -0.866821 -0.413083 91 108 111
4.33147 6.81883 1.64841 -0.236988 -0.924208 -0.299461 96 124 136
5.37655 6.2585 1.41833 -0.981747 -0.179806 -0.0619881 156 160 158
5.46831 6.18848 1.38943 -0.971697 -0.218575 -0.0896147 154 156 153
5.6736 6.14123 1.36501 -0.963197 -0.177679 -0.201695 159 168 177
6.62039 6.59972 1.496 -0.979761 -0.0999164 -0.173453 153 140 139
-2.67197 6.10401 1.60625 0.691121 0.0753877 -0.718797 56 23 4
-2.67317 6.11067 1.60761 0.694662 0.0768295 -0.715222 55 22 5
3.59153 6.73227 1.59542 0.331453 -0.928708 0.166251 97 123 134
5.37452 6.25259 1.33619 -0.711935 -0.385024 -0.587286 163 177 180
5.42072 6.22253 1.36707 -0.931877 -0.115745 -0.343815 165 168 166
5.50879 6.1516 1.2984 -0.950755 -0.175079 -0.255759 147 161 165
5.53186 6.14664 1.28043 -0.901349 -0.412207 0.132874 151 166 170
5.6503 6.13456 1.29509 -0.892191 -0.220854 -0.393979 152 166 173
6.08413 6.12436 1.31262 -0.960119 -0.263513 -0.0934498 158 157 162
6.50176 6.51419 1.44179 -0.980628 -0.0949831 -0.171311 154 143 143
6.50342 6.5261 1.44076 -0.977842 -0.112448 -0.176582 154 143 143
5.39524 6.26277 1.31642 -0.622271 -0.743522 -0.244855 178 193 199
5.41758 6.24166 1.26555 -0.909705 -0.338433 -0.240626 183 202 210
5.41636 6.22735 1.25837 -0.958382 -0.183487 -0.218716 180 199 207
5.44941 6.15732 1.26928 -0.953367 -0.151608 -0.260973 146 160 166
5.54361 6.10509 1.20213 -0.843391 -0.518949 -0.139226 161 177 182
5.6058 6.08961 1.2157 -0.662729 -0.653362 -0.365934 157 171 177
5.65645 6.04496 1.21696 -0.658532 -0.639837 0.396162 176 194 201
6.56399 6.52947 1.35745 -0.988777 -0.0916317 -0.118003 152 151 152
-2.755 6.17405 1.5026 0.831392 0.102599 -0.546132 57 24 3
-2.75345 6.17483 1.50317 0.819534 0.101976 -0.563884 56 23 3
3.84681 5.82435 1.14464 -0.705904 -0.572152 0.417543 172 193 199
4.0626 5.80334 1.1167 0.0625888 -0.815445 0.575441 178 199 205
5.38402 6.32192 1.2584 -0.765009 -0.641337 -0.0587224 179 206 210
5.43464 6.17726 1.17362 -0.957435 -0.259068 -0.127286 185 206 213
5.47944 6.12609 1.18571 -0.897847 -0.418491 0.136883 162 180 187
5.55993 6.04728 1.12769 -0.842974 -0.444087 0.303614 155 169 175
5.61481 6.06559 1.15363 0.17947 -0.980919 -0.0747472 158 174 181
5.69071 6.05742 1.16655 -0.681499 -0.638262 0.358024 171 189 196
5.78699 6.08528 1.14939 -0.294974 -0.932186 -0.20981 151 166 172
3.92391 5.77453 1.05886 0.267558 -0.877954 0.397001 180 202 210
3.99121 5.81869 1.08977 -0.182892 -0.921815 0.341771 179 201 209
5.37373 6.5252 1.23649 -0.952512 -0.295783 -0.0723431 146 137 144
5.40655 6.27207 1.17235 -0.915165 -0.392682 0.0909585 173 183 189
5.46706 6.05292 1.07334 -0.952368 -0.117708 -0.281319 179 201 208
5.54664 6.00122 1.06691 -0.853871 -0.480242 0.200681 153 169 176
5.63012 6.03419 1.09296 -0.588412 -0.803351 0.0916384 163 180 187
6.2342 6.30429 1.1274 0.117669 -0.917566 0.379773 169 141 150
-2.80823 6.27658 1.40956 0.986453 -0.0224787 -0.162494 37 17 3
3.72111 5.79247 1.0131 0.0923188 -0.817597 0.568343 168 192 201
4.18686 5.74588 0.958882 0.385875 -0.884315 0.262847 151 173 182
5.41759 6.19341 1.07607 -0.961039 -0.25193 -0.113737 192 198 204
5.43574 6.13825 1.07405 -0.913566 -0.361826 -0.185688 190 212 219
5.52627 5.98272 0.987306 -0.815714 -0.415448 -0.402508 190 210 217
5.77437 5.99715 0.991745 0.131761 -0.903724 -0.407335 157 169 173
6.55198 6.52064 1.15138 0.322556 -0.923554 -0.207379 150 153 154
6.61693 6.52473 1.11016 0.354777 -0.889419 -0.288212 151 156 156
4.12429 5.70545 0.928266 0.41849 -0.881927 0.21696 148 172 180
4.31896 5.6519 0.877662 -0.413116 -0.798464 0.437939 156 175 182
5.38517 6.25849 1.01058 -0.941005 -0.16238 -0.296887 175 69 93
5.44531 6.14371 0.985123 -0.837941 -0.532453 -0.119783 199 162 176
5.45388 6.12661 0.987663 -0.841115 -0.482573 0.244232 201 180 190
5.49103 6.03327 0.984449 -0.923007 -0.36849 -0.110781 176 195 200
5.4949 5.99646 0.912252 -0.903156 -0.423566 0.0700101 191 204 211
5.53965 5.94322 0.916189 -0.909199 -0.416263 -0.00909614 199 216 223
5.63819 5.99907 0.916958 0.252814 -0.740831 -0.622298 199 212 219
5.74328 6.02386 0.919552 0.0324579 -0.736092 -0.676102 189 199 205
6.43897 6.50637 1.09881 -0.993964 -0.09199 -0.0597824 154 149 151
6.53111 6.50683 1.06335 0.0608395 -0.950672 -0.304173 155 169 168
-2.88094 6.39043 1.33019 0.668177 -0.433543 -0.604632 29 18 4
3.5139 5.82554 0.931961 -0.652482 -0.740914 0.1591 153 181 189
3.57331 5.792 0.904872 0.291058 -0.891378 0.347463 146 173 182
5.36424 6.34991 1.00933 -0.835936 -0.187708 -0.515729 160 48 73
5.36478 6.35145 1.00965 -0.876622 -0.171457 -0.449597 162 49 74
5.36351 6.34781 1.00891 -0.845772 -0.18753 -0.499502 160 48 73
5.45854 6.07958 0.91348 -0.844727 -0.467786 0.260024 192 138 155
5.51299 5.96464 0.842715 -0.891897 -0.450231 0.0425544 202 200 209
5.57781 5.95936 0.84527 -0.563359 -0.825706 0.028921 202 213 220
5.5797 5.9645 0.856515 -0.566241 -0.812142 -0.140699 202 215 221
6.46515 6.52482 1.03195 -0.276249 -0.889937 0.362903 122 142 137
6.5881 6.49613 1.02193 0.0141663 -0.427345 -0.903978 160 170 171
4.14819 5.69457 0.808446 0.48361 -0.873246 0.0596859 145 167 175
5.32569 6.39759 0.980294 -0.905907 -0.395795 -0.150594 146 63 80
5.34289 6.46787 0.997963 -0.888306 -0.230627 -0.397144 143 69 84
5.31452 6.39116 0.958574 -0.781648 -0.596922 0.180861 141 63 78
5.34773 6.34745 0.900451 -0.924403 -0.371843 -0.0849198 155 77 91
5.37764 6.23758 0.916311 -0.979219 -0.18392 -0.0854621 181 75 98
5.42406 6.12132 0.841225 -0.963744 -0.233823 -0.128551 205 109 131
5.46826 6.01754 0.84231 -0.829194 -0.558799 -0.0134481 188 135 153
5.54919 5.95677 0.785067 -0.60206 -0.727093 -0.32994 210 170 183
5.89384 6.11209 0.82277 -0.582371 -0.791506 0.185371 179 142 154
6.44746 6.51136 0.951598 0.269427 -0.952413 -0.142542 76 116 103
6.51525 6.51846 0.914311 -0.107332 -0.967641 -0.228363 118 152 143
3.60386 5.7989 0.778465 0.562647 -0.825529 0.0439376 186 214 224
3.67504 5.76411 0.761889 -0.668488 -0.738234 -0.0901867 153 179 190
4.13229 5.66463 0.685936 0.388789 -0.896371 0.212982 166 189 198
5.36853 6.27656 0.814071 -0.967929 -0.22984 -0.101424 156 78 94
5.39245 6.19021 0.845601 -0.962891 -0.257499 -0.0808365 193 80 105
5.45546 6.05209 0.782438 -0.574987 -0.75108 -0.324451 202 121 143
5.50125 6.00191 0.783297 -0.767183 -0.611242 -0.19446 183 91 119
5.53386 5.98518 0.724015 -0.567459 -0.804067 -0.17739 200 47 88
5.59238 5.96543 0.726811 0.00741597 -0.966382 -0.257005 191 53 88
5.93117 6.11749 0.769663 0.213422 -0.830139 -0.515093 198 121 141
6.37921 6.39705 0.852318 -0.433502 -0.502907 0.74777 105 133 128
6.60593 6.57324 0.877457 0.346266 -0.862096 -0.369986 158 164 164
3.84322 5.71219 0.696584 0.520821 -0.848363 -0.0950053 173 199 209
4.2793 5.61993 0.632132 0.4482 -0.893544 0.0263646 176 193 201
5.32338 6.32411 0.803212 -0.939414 -0.273844 -0.206183 136 109 109
5.39123 6.16497 0.722835 -0.912124 -0.409887 -0.00485377 158 99 113
5.41382 6.17641 0.766869 -0.926657 -0.258739 -0.272691 192 98 119
5.43001 6.10467 0.728829 -0.948932 -0.268833 -0.165097 183 108 127
5.48974 6.03985 0.723937 -0.498599 -0.504892 -0.704616 189 79 110
5.65432 5.9833 0.695858 0.309413 -0.946878 -0.0876717 193 23 63
4.05141 5.65268 0.626174 0.525415 -0.849818 -0.041812 150 177 188
5.34078 6.24064 0.707197 -0.924204 -0.37695 -0.0612808 126 109 113
5.35054 6.23008 0.720571 -0.893345 -0.449351 0.00443284 125 98 104
5.39971 6.07134 0.662244 -0.692369 -0.174999 -0.7 156 105 120
5.41339 6.13639 0.649114 -0.809218 -0.587493 -0.00423202 137 105 117
5.45046 6.02238 0.617521 -0.815402 -0.470131 0.337781 190 67 103
5.53069 6.03517 0.662942 -0.96948 -0.185728 -0.160044 205 33 79
5.44287 5.98466 0.657521 -0.540408 -0.526998 -0.655921 189 73 108
5.456 5.99621 0.641315 -0.965761 -0.180794 -0.186065 195 62 101
3.83571 5.65132 0.572546 0.263517 -0.848653 0.458635 183 207 218
5.33418 6.27281 0.645946 -0.664059 -0.260394 -0.700871 122 116 119
5.37334 6.20367 0.647372 -0.910232 -0.412435 -0.0370949 102 95 101
5.46616 6.03513 0.567678 -0.646707 -0.682317 0.340901 188 47 86
5.52866 6.00788 0.570934 -0.740922 -0.338148 0.580251 211 19 63
5.37042 6.27914 0.577135 -0.755028 -0.457578 -0.469632 118 106 110
5.39546 6.17006 0.573063 -0.89991 -0.432081 -0.0588894 129 119 125
5.41924 6.16417 0.552148 -0.752749 -0.341047 0.563077 132 114 122
5.43561 6.03497 0.544085 -0.787905 -0.409055 0.460305 163 67 94
5.59602 5.96205 0.496486 -0.977416 -0.11881 -0.174763 192 15 42
4.12222 5.58589 0.399767 0.41994 -0.890736 0.173895 148 170 180
5.3816 7.14233 0.739453 -0.801089 -0.351032 0.484802 109 114 118
5.39122 6.15296 0.477818 -0.708401 -0.358445 0.608017 128 103 112
5.42201 6.13937 0.511006 -0.607452 -0.409509 0.680665 133 109 117
5.42719 6.07654 0.476898 -0.857902 -0.482829 -0.175727 137 101 113
5.44054 6.04359 0.487568 -0.930439 -0.363689 -0.044863 146 69 88
5.47266 6.02502 0.479054 -0.717172 -0.656884 -0.23274 170 42 72
5.50757 6.01325 0.422061 -0.374552 -0.401816 -0.835617 155 64 82
5.58551 6.0003 0.43361 -0.128197 -0.770193 -0.624794 181 20 48
5.35795 7.094 0.640737 -0.898224 -0.264408 -0.351116 92 94 94
5.3802 6.22513 0.448805 -0.704129 -0.436828 0.559807 109 87 96
5.46502 6.07778 0.374654 0.185038 -0.623678 -0.759465 144 115 128
5.59143 6.05914 0.377559 0.0922026 -0.784298 -0.613494 143 85 96
6.09662 6.29545 0.395035 -0.402713 -0.838498 -0.367076 149 45 60
-2.56706 6.71158 0.890641 -0.328315 -0.941018 0.0818129 107 121 121
5.44525 6.48757 0.405025 -0.962482 -0.168559 -0.212639 105 104 109
5.41632 6.29341 0.393661 -0.970967 -0.19792 -0.134356 102 98 105
5.41153 6.21545 0.387749 -0.785974 -0.187017 -0.589296 98 90 99
5.51329 6.09216 0.336895 -0.0602131 -0.891771 -0.448463 149 97 114
5.52297 6.08452 0.341749 -0.115296 -0.960361 -0.253799 146 96 112
-2.6897 6.68677 0.843268 -0.0420118 -0.95498 0.293679 40 54 51
4.10867 5.60062 0.238917 0.485711 -0.85281 -0.191834 133 154 165
