ply
format ascii 1.0
element vertex 723
property float x
property float y
property float z
property float nx
property float ny
property float nz
property uchar diffuse_red
property uchar diffuse_green
property uchar diffuse_blue
end_header
6.317 -8.17466 -0.511536 -0.894312 0.195528 0.402461 78 74 77
6.4427 -8.54818 -0.502901 -0.951808 0.210832 0.222736 80 77 79
6.37532 -8.12919 -0.519076 -0.900548 0.232091 0.367625 87 71 72
6.3475 -7.90082 -0.500563 -0.978073 0.208204 0.00490416 112 92 94
6.39017 -7.65352 -0.511523 -0.823873 0.563232 -0.0632774 109 97 104
6.63152 -7.0659 -0.599417 0.18209 0.981016 -0.0667143 190 151 163
6.76106 -7.07408 -0.57933 0.351363 0.936239 0.000277014 164 98 115
6.86725 -7.07414 -0.626316 -0.0741484 0.995493 0.0591269 200 155 167
6.96121 -7.10935 -0.593665 -0.214872 0.94252 -0.255901 203 149 163
-2.99636 -8.06136 0.600929 0.707458 0.684159 -0.177283 128 135 134
-2.94407 -8.15369 0.601655 0.930451 0.362686 -0.0521595 129 134 132
-2.91152 -8.28094 0.601275 0.953142 0.302509 -0.00305007 111 116 114
-1.28475 -8.47247 0.463812 0.548167 0.753871 -0.362202 65 80 77
-1.28414 -8.4793 0.464148 0.662224 0.666263 -0.342859 64 79 76
-1.22307 -8.58445 0.462262 0.941991 0.279945 0.185158 62 72 70
-1.21998 -8.57773 0.46118 0.941644 0.280886 0.185497 62 72 71
-1.02898 -8.79506 0.425086 0.0556693 0.974032 0.219462 87 105 105
-0.959195 -8.78684 0.386736 -0.0542066 0.966357 0.251426 107 124 124
-1.0251 -8.79621 0.420128 0.0563869 0.967574 0.246212 91 108 109
-0.889425 -8.80858 0.426357 0.411306 0.9066 0.0943573 100 116 115
-0.757339 -8.76077 0.350287 0.260641 0.785222 0.561687 103 119 119
-0.692735 -8.79888 0.34345 0.0828208 0.872277 0.481948 79 97 98
-0.692633 -8.84033 0.424563 0.0441789 0.907084 0.418625 112 128 128
-0.616634 -8.82129 0.384447 -0.0201064 0.927592 0.373053 107 126 128
-0.54066 -8.81503 0.342456 0.0298667 0.934053 0.355884 119 138 138
-0.468593 -8.81482 0.383001 0.0115692 0.96318 0.268607 114 133 134
-0.323604 -8.77642 0.30143 -0.109925 0.946001 0.304959 123 143 145
-0.328603 -8.77897 0.307611 -0.127621 0.955931 0.264403 121 141 142
-0.393316 -8.79784 0.339825 0.104428 0.95205 0.287567 81 100 99
-0.196215 -8.77016 0.311135 0.164362 0.888408 0.428621 89 111 114
-0.117346 -8.8298 0.347655 0.0820479 0.901408 0.425125 92 114 117
0.0379641 -8.83114 0.344152 0.0932872 0.899828 0.426154 107 128 130
-0.0353617 -8.80556 0.305217 0.149031 0.90395 0.400829 116 138 141
0.0431977 -8.79386 0.260066 0.127155 0.925917 0.355681 115 138 142
0.115297 -8.82015 0.300204 0.0852609 0.933413 0.348527 92 113 115
0.11277 -8.82098 0.301098 0.0981098 0.933483 0.344942 91 112 114
0.187596 -8.8118 0.258792 0.0364356 0.948235 0.315472 103 127 131
0.262198 -8.8331 0.300255 0.0856512 0.926845 0.365544 109 132 136
0.261744 -8.83293 0.300276 0.0879 0.926343 0.366282 109 132 136
0.338001 -8.82389 0.257158 0.109986 0.911082 0.397282 115 137 141
0.337057 -8.82489 0.257221 0.119168 0.910089 0.39691 115 137 141
0.403955 -8.8113 0.219207 0.0756335 0.932861 0.352207 111 133 136
0.402083 -8.8432 0.30324 0.104836 0.90723 0.40736 105 128 132
0.481694 -8.82942 0.258059 0.12033 0.894367 0.430847 96 119 124
0.558093 -8.82 0.214201 0.142368 0.940639 0.308107 101 127 135
0.634225 -8.84217 0.252613 0.133427 0.91651 0.377102 121 146 151
0.713463 -8.82943 0.206882 -0.0881725 0.9269 0.364805 71 98 105
0.852038 -8.81629 0.207938 0.0579646 0.953522 0.295697 128 148 151
1.02055 -8.8196 0.159766 0.715234 0.641437 0.277488 69 99 105
1.10079 -8.82588 0.199407 0.0863825 0.949323 0.302198 103 131 139
1.178 -8.81347 0.15566 0.682472 0.644587 0.344585 63 93 102
1.18238 -8.799 0.155718 0.0492896 0.954925 0.292728 64 93 102
1.24901 -8.83523 0.195771 0.0733816 0.973327 0.217371 78 103 109
1.32158 -8.82879 0.15481 0.0342181 0.966229 0.255404 109 129 131
1.40176 -8.80114 0.112461 0.0509902 0.959949 0.275496 99 119 121
1.47667 -8.81777 0.153153 0.683082 0.676264 0.275801 111 134 139
1.67586 -8.75131 0.0738941 -0.0948286 0.989577 0.108377 66 94 103
1.62608 -8.7724 0.141159 -0.0635294 0.939963 0.33531 57 87 99
1.75421 -8.7528 0.0646238 -0.16095 0.980249 0.114921 102 126 132
2.18409 -8.95563 0.0972951 0.773628 0.610107 0.171084 59 87 98
2.26648 -8.91771 0.0529721 -0.0903824 0.976082 0.197725 110 133 140
2.26921 -8.8921 0.0537885 -0.109245 0.977706 0.179324 113 136 142
2.34201 -8.914 0.00986713 -0.0434955 0.984498 0.169918 129 151 153
2.34735 -8.85324 0.0132456 -0.176941 0.957089 0.229507 131 153 156
2.34932 -8.85163 0.0130128 -0.160704 0.958988 0.233486 131 153 156
2.42255 -8.86167 0.0561748 -0.0669916 0.961579 0.266229 108 131 134
2.49222 -8.81851 0.0181364 -0.283924 0.955581 0.0790767 79 106 110
2.75618 -8.69286 -0.0299157 0.153687 0.849826 0.504158 99 122 128
3.06958 -7.74638 -0.0666209 -0.866289 0.499516 0.00525811 171 197 207
3.14486 -7.66443 -0.112029 -0.799533 0.576572 -0.168264 178 207 218
3.2026 -7.56857 -0.110038 -0.696728 0.68822 -0.202294 157 186 197
3.27377 -7.50745 -0.126233 -0.640729 0.752651 -0.151602 159 189 200
3.3397 -7.44888 -0.125981 -0.665883 0.736648 -0.118103 184 213 224
3.33706 -7.44874 -0.126052 -0.653481 0.747034 -0.122077 184 213 224
3.42911 -7.38263 -0.109663 -0.233619 0.968137 -0.0901812 155 183 195
3.49 -7.36597 -0.14656 -0.19409 0.969786 -0.147795 149 178 190
3.55567 -7.32587 -0.127685 -0.584571 0.786174 -0.200517 181 209 220
3.55166 -7.36206 -0.184366 -0.181825 0.982267 -0.0457259 150 178 191
3.68436 -7.24404 -0.205502 0.0129301 0.998172 0.0590429 177 206 218
3.6834 -7.24357 -0.136492 0.0933283 0.99106 -0.0953383 147 175 187
3.84339 -7.15096 -0.15873 -0.518593 0.854834 0.0178932 157 184 197
3.89794 -7.11025 -0.190669 -0.420485 0.902103 0.0969657 152 180 192
3.94748 -7.09178 -0.223904 0.389345 0.912488 0.125605 161 188 200
4.00369 -7.10983 -0.188943 0.301847 0.950642 0.0718921 177 203 216
4.071 -7.11293 -0.223684 -0.245643 0.965325 0.0883549 177 203 215
4.13282 -7.00315 -0.250858 -0.845089 0.531474 0.0579743 188 215 227
4.12321 -7.07591 -0.253799 -0.770366 0.634865 0.0590172 187 214 226
4.18623 -6.97763 -0.215351 -0.0973113 0.992598 0.0726664 179 206 218
4.25094 -6.99764 -0.238631 0.356647 0.913977 -0.193519 141 168 180
4.30873 -7.00575 -0.269069 0.285122 0.945634 0.156466 152 179 191
4.34726 -6.96188 -0.227087 0.210954 0.773781 -0.597295 174 199 211
4.41591 -6.9726 -0.249102 -0.778294 0.555773 -0.292189 186 211 222
4.61674 -6.88711 -0.265131 0.14972 0.886851 -0.437127 156 182 194
4.69822 -6.8382 -0.284326 -0.107943 0.971718 -0.210028 166 191 203
4.72093 -6.82406 -0.287463 -0.295478 0.910571 -0.289055 172 198 210
4.80094 -6.883 -0.342882 0.19771 0.930283 -0.309005 180 205 216
4.85677 -6.83563 -0.304697 0.04686 0.900451 -0.432425 148 170 181
4.92055 -6.84195 -0.337084 -0.0513302 0.927183 -0.371075 169 189 198
4.99009 -6.84529 -0.303521 0.167723 0.970207 -0.174837 171 189 199
5.04967 -6.87379 -0.334205 0.377376 0.913241 -0.15355 143 160 168
5.04812 -6.86957 -0.330585 0.365818 0.91181 -0.18649 144 161 170
5.11911 -6.90986 -0.370846 0.576469 0.744798 -0.336093 136 154 161
5.11783 -6.91318 -0.371171 0.482591 0.844535 -0.23209 140 158 165
5.25409 -6.99215 -0.364566 0.0620689 0.88913 -0.453427 165 180 186
5.41923 -7.03973 -0.370689 0.528806 0.848685 0.00989789 145 152 156
5.51103 -7.11267 -0.372913 0.561579 0.827148 -0.0213664 123 124 129
6.3824 -8.15297 -0.411275 -0.822237 0.230135 0.520542 81 71 70
6.35036 -7.7329 -0.489721 -0.920682 0.38891 0.0330682 126 116 118
6.43548 -7.55904 -0.508838 -0.792596 0.60805 -0.0454644 137 102 114
6.44282 -7.54088 -0.496961 -0.904819 0.411804 -0.108256 138 103 116
6.47564 -7.46413 -0.509916 -0.942638 0.327531 0.0644824 169 102 123
6.47468 -7.30139 -0.517092 -0.95575 0.234022 0.178256 188 80 113
6.50618 -7.19599 -0.518621 -0.971612 0.1786 -0.15515 204 45 88
6.58427 -7.15047 -0.533298 -0.948016 0.257121 0.187495 198 34 75
6.69225 -7.06653 -0.531694 0.384237 0.896002 -0.222582 175 39 71
6.86205 -7.15817 -0.529801 -0.647701 0.750896 -0.12899 180 30 64
6.94732 -7.14165 -0.537981 0.0669652 0.867248 0.493353 185 42 77
-2.9581 -8.09192 0.704039 0.931689 0.354106 -0.0810165 107 113 111
-2.95309 -8.08391 0.680489 0.58588 0.603783 0.540546 114 120 119
-2.92839 -8.22164 0.708926 0.961225 0.26715 -0.068395 104 109 106
-1.29309 -8.40383 0.526505 0.221798 0.959221 -0.175217 58 74 71
-1.03216 -8.79763 0.513045 0.170793 0.954807 0.243255 77 95 97
-0.959221 -8.80859 0.464963 0.291675 0.928371 0.230331 85 106 108
-0.959917 -8.83819 0.550853 0.251541 0.927382 0.276929 49 70 74
-0.886267 -8.83885 0.502377 0.440501 0.756806 0.482911 61 80 83
-0.887748 -8.77684 0.516949 0.628549 0.594285 0.501748 52 74 76
-0.819375 -8.86749 0.46666 0.162093 0.922542 0.350202 68 82 82
-0.711772 -8.88112 0.519574 0.131657 0.891157 0.434173 93 108 106
-0.615912 -8.9001 0.467597 0.0845941 0.890793 0.446466 104 120 120
-0.540032 -8.85928 0.422452 0.152963 0.925626 0.346148 71 91 92
-0.467567 -8.86499 0.462827 -0.0918834 0.856926 0.507183 64 87 91
-0.295758 -8.77994 0.434472 0.533721 0.636658 0.556604 70 92 93
-0.379766 -8.86335 0.474016 0.163272 0.810029 0.5632 60 85 89
-0.395443 -8.84297 0.422555 0.0128305 0.949745 0.312763 111 132 134
-0.213378 -8.81093 0.396605 0.070322 0.879445 0.470778 105 126 127
-0.0413753 -8.81625 0.390298 0.0251558 0.945726 0.32399 86 109 111
-0.117346 -8.86287 0.430723 -0.0145869 0.894222 0.447386 110 131 133
-0.132237 -8.86265 0.434982 0.050024 0.884452 0.463942 112 132 133
0.0337521 -8.86824 0.428443 0.0712993 0.88273 0.46444 84 109 113
0.0374032 -8.83847 0.42866 0.0763671 0.88337 0.462412 87 111 115
0.115082 -8.85173 0.383431 0.0923262 0.884197 0.457899 115 135 138
0.105695 -8.86079 0.385942 0.09421 0.876887 0.471374 116 137 139
0.185957 -8.84335 0.341886 0.0736497 0.917623 0.390569 112 133 135
0.320213 -8.86097 0.349152 0.0368024 0.912735 0.406891 90 114 117
0.407526 -8.86667 0.38641 0.11839 0.906254 0.405817 112 135 139
0.484372 -8.86217 0.34046 0.132881 0.89902 0.41726 121 144 147
0.564047 -8.84847 0.294982 0.11087 0.931068 0.347593 99 121 124
0.633889 -8.8774 0.336018 0.0432668 0.945038 0.324086 96 119 120
0.719021 -8.84801 0.289826 -0.0031043 0.957114 0.289694 121 145 149
0.94508 -8.84633 0.28698 0.0736654 0.930181 0.359633 119 142 147
1.02188 -8.83753 0.243555 0.70586 0.637839 0.308096 93 119 122
1.10071 -8.85286 0.283232 0.0899344 0.938015 0.334724 98 120 123
1.25034 -8.81486 0.278182 -0.0289934 0.906763 0.420643 111 133 137
1.32318 -8.85184 0.236758 -0.0159243 0.951021 0.308715 122 144 147
1.40193 -8.86384 0.193093 -0.0272856 0.955689 0.293112 123 144 146
1.47725 -8.86644 0.236285 0.128374 0.919219 0.372231 87 109 115
1.5549 -8.86014 0.190407 0.694998 0.688403 0.207555 75 102 110
1.56617 -8.82576 0.190135 0.136243 0.94906 0.284116 79 105 114
1.62792 -8.80793 0.224603 -0.067971 0.935106 0.347787 119 143 150
1.6349 -8.86436 0.232494 0.00263239 0.957029 0.289979 119 142 149
1.75778 -8.77139 0.149877 -0.0333677 0.977303 0.209201 113 137 143
1.91232 -8.88858 0.14806 -0.0685328 0.908774 0.411622 110 129 131
2.19134 -8.78876 0.161612 -0.0142063 0.995424 0.0944954 68 96 106
2.28645 -8.8784 0.162613 -0.00657696 0.998789 -0.0487591 119 142 147
2.34728 -8.88233 0.0976914 -0.0517405 0.994993 0.085513 97 119 121
2.34563 -8.88018 0.0981266 -0.0591322 0.991014 0.119976 97 119 122
2.42039 -8.88268 0.141219 -0.0941453 0.93322 0.346752 103 124 128
2.49875 -8.86504 0.101295 -0.07866 0.975423 0.205824 105 130 137
2.49135 -8.83779 0.102522 0.0332674 0.891981 0.450847 108 132 139
2.62405 -8.94756 0.131701 -0.00658768 0.973762 0.227474 59 91 103
2.77616 -8.87279 0.0639825 -0.422521 0.873155 0.243056 111 137 143
3.0457 -7.79108 0.0206353 -0.863791 0.503477 0.0194023 159 184 193
3.09467 -7.68944 0.0219982 -0.795471 0.512941 -0.322674 166 193 202
3.16463 -7.57501 -0.0516885 -0.743661 0.664467 -0.0738347 176 204 215
3.23206 -7.51885 -0.0508788 -0.569922 0.805602 -0.161844 179 207 218
3.29749 -7.46228 -0.0512879 -0.65866 0.740376 -0.134204 162 191 202
3.30121 -7.46853 -0.0512201 -0.683432 0.721447 -0.111513 161 190 201
3.31163 -7.4089 -0.0381901 -0.630204 0.776404 -0.00627143 151 179 190
3.29918 -7.46843 -0.0515099 -0.680206 0.723988 -0.114719 162 191 201
3.30031 -7.46893 -0.050722 -0.67673 0.728463 -0.106669 161 190 201
3.37818 -7.42374 -0.0833925 -0.46442 0.885496 -0.0145416 183 212 223
3.43847 -7.38647 -0.0492184 -0.287177 0.947515 -0.140516 182 210 221
3.4918 -7.35709 -0.0761218 -0.199974 0.947893 -0.248011 175 202 215
3.49523 -7.34913 -0.0856706 -0.34111 0.9009 -0.26837 173 201 213
3.55431 -7.29678 -0.0530727 -0.580867 0.799046 -0.155306 161 188 200
3.55002 -7.33002 -0.112379 -0.576249 0.816381 -0.038202 184 211 223
3.62297 -7.23241 -0.102149 0.135759 0.695278 -0.705803 177 206 217
3.80982 -7.15393 -0.0923331 -0.380374 0.923358 -0.0522085 185 213 225
3.75053 -7.16668 -0.126127 0.115724 0.993275 0.0034815 151 178 191
3.89658 -7.11031 -0.116449 -0.417548 0.902348 -0.106877 149 178 190
4.00467 -7.10872 -0.114875 0.286462 0.957326 0.0382898 157 185 197
3.9466 -7.0939 -0.150321 0.36655 0.927726 0.0704684 173 201 213
4.06315 -7.09471 -0.14936 -0.374367 0.916514 0.140896 154 180 193
4.1245 -7.08677 -0.186253 -0.814265 0.57806 -0.0530884 143 170 182
4.132 -7.00292 -0.184203 -0.856683 0.511149 0.0694328 148 176 188
4.25702 -6.99229 -0.163532 0.395515 0.821678 -0.410382 172 201 212
4.42288 -6.93727 -0.178586 -0.635028 0.771395 -0.0411034 169 195 207
4.57436 -6.94551 -0.239227 0.452607 0.854122 -0.25617 156 181 193
4.6747 -6.88541 -0.222956 -0.584822 0.811162 -0.00047569 168 193 205
4.72875 -6.81942 -0.220865 -0.447138 0.798364 -0.40334 161 186 198
4.78988 -6.81241 -0.269589 0.00576459 0.922013 -0.387115 166 190 202
4.85931 -6.79934 -0.232945 0.065552 0.950535 -0.303623 172 195 206
4.92256 -6.81522 -0.267472 0.0161574 0.961124 -0.275642 149 170 180
4.98439 -6.84446 -0.297275 0.348325 0.913336 -0.210919 172 191 200
5.04477 -6.84191 -0.248372 0.326403 0.906926 -0.266356 159 177 185
5.10146 -6.84692 -0.284232 0.395811 0.887229 -0.236979 158 176 183
5.11068 -6.87349 -0.283395 0.424171 0.868231 -0.257397 157 175 182
5.16525 -6.92351 -0.318931 0.439384 0.854732 -0.27636 165 183 189
5.23629 -6.95251 -0.28617 0.124978 0.992138 0.00656153 169 185 192
5.31034 -6.98692 -0.326351 0.408073 0.887784 -0.212874 148 162 168
5.3724 -7.00921 -0.286873 0.502729 0.863714 0.0355313 125 136 140
5.33764 -6.97821 -0.315637 0.659296 0.750774 0.0408393 132 145 149
5.45865 -7.06561 -0.288114 0.529018 0.848261 0.0243805 122 127 131
6.41331 -8.48708 -0.368764 -0.921411 0.303941 0.242118 77 77 75
6.3395 -7.98164 -0.386497 -0.941412 0.328116 0.0779965 90 78 79
6.40204 -8.20232 -0.356886 -0.930963 0.210691 0.29819 91 84 80
6.40204 -8.20232 -0.356886 -0.930963 0.210691 0.29819 91 86 84
6.38808 -7.63872 -0.429577 -0.97346 0.225052 -0.0415454 102 101 105
6.41188 -7.60811 -0.431831 -0.9773 0.207086 -0.0447237 105 102 108
6.41878 -7.60135 -0.406495 -0.916851 0.396161 -0.0494088 115 112 117
6.45259 -7.49029 -0.423725 -0.516216 0.481229 -0.708477 136 104 117
6.49057 -7.38721 -0.421764 -0.869978 0.471209 0.145262 180 68 102
6.5632 -7.36664 -0.432229 -0.966955 0.230881 0.108125 205 34 79
6.53872 -7.18622 -0.41829 -0.96113 0.233764 0.146916 211 19 66
6.98312 -7.27085 -0.485778 -0.0539775 0.934213 0.352608 198 13 54
6.9795 -7.23597 -0.465065 0.377274 0.774365 0.50796 200 12 53
7.03941 -7.18644 -0.503126 0.0637894 0.863639 0.500058 186 29 65
7.14035 -7.24225 -0.469289 0.370814 0.84043 0.395188 187 59 85
-2.97674 -8.0492 0.815246 0.917198 0.390839 0.0774094 106 113 111
-2.9562 -8.19361 0.814877 0.959986 0.277937 0.0343091 119 125 123
-2.91207 -8.29043 0.815163 0.957995 0.284917 -0.0326803 106 111 108
-2.87284 -8.3982 0.815298 0.590962 0.805927 0.0352827 62 70 65
-2.75523 -8.35052 0.767267 -0.380856 0.867749 -0.319312 47 56 53
-2.70988 -8.35429 0.797356 -0.347559 0.912407 -0.21614 43 55 53
-2.64808 -8.33663 0.756452 -0.175415 0.968944 -0.174288 46 58 58
-2.52905 -8.25994 0.768405 -0.426845 0.903175 0.045595 118 132 133
-1.11181 -8.78693 0.643817 0.404579 0.839927 0.361716 89 99 96
-0.885736 -8.89195 0.587575 0.252365 0.931912 0.260483 35 60 60
-0.817606 -8.87715 0.551444 0.197373 0.855316 0.479039 70 87 90
-0.628713 -8.91418 0.563541 -0.0545527 0.868613 0.49248 101 116 116
-0.532901 -8.89513 0.508026 0.147228 0.85856 0.49112 89 110 113
-0.465883 -8.87572 0.523823 0.117336 0.806652 0.579262 47 72 77
-0.383133 -8.91421 0.559232 0.0832928 0.855031 0.511844 53 78 85
-0.298013 -8.88591 0.515198 0.0257413 0.894223 0.446881 96 119 124
-0.296042 -8.83235 0.517186 0.586094 0.638454 0.498869 93 117 121
-0.217085 -8.89996 0.55601 0.0525936 0.903656 0.425017 102 120 123
-0.216985 -8.85149 0.471933 0.0602753 0.905814 0.419366 105 125 126
-0.132503 -8.90768 0.518704 0.0785927 0.888828 0.451451 90 109 109
-0.0492598 -8.88895 0.47296 0.0970308 0.879054 0.466744 97 120 123
0.117001 -8.89016 0.466244 0.0279008 0.869882 0.492471 65 93 100
0.111974 -8.89052 0.468294 0.0787079 0.864005 0.497294 64 92 99
0.0376204 -8.89434 0.511157 0.0796956 0.864321 0.496587 52 81 88
0.18462 -8.88201 0.42525 0.0877631 0.887906 0.451575 73 97 101
0.194436 -8.92937 0.507488 0.0235037 0.880158 0.474099 88 114 120
0.265453 -8.90952 0.463766 0.0630905 0.891516 0.448574 110 131 135
0.31909 -8.90129 0.433006 0.0518387 0.918936 0.390984 120 141 143
0.404158 -8.91277 0.470332 0.0090167 0.942288 0.334683 109 130 133
0.488244 -8.89064 0.423423 0.122634 0.929835 0.346942 71 96 101
0.567692 -8.87914 0.37728 0.0698095 0.919183 0.387595 121 143 146
0.568294 -8.90785 0.461888 0.0745345 0.917127 0.391566 72 101 109
0.642248 -8.90932 0.418052 0.072553 0.947242 0.312201 113 137 142
0.794862 -8.8442 0.380252 -0.0252185 0.912027 0.409353 111 134 138
0.943376 -8.88377 0.370659 0.0218573 0.95119 0.307832 98 123 127
1.01963 -8.87494 0.327693 0.042352 0.933192 0.356873 115 138 141
1.02146 -8.90088 0.411279 0.0570727 0.922344 0.382131 78 104 109
1.10101 -8.88179 0.367232 0.0861382 0.891462 0.444833 110 132 134
1.18323 -8.8548 0.322745 0.00338854 0.949364 0.314161 110 131 133
1.2557 -8.85774 0.363321 0.075674 0.871431 0.484646 109 131 134
1.32231 -8.86909 0.321088 -0.0603346 0.957471 0.282152 91 114 118
1.3986 -8.85662 0.279517 -0.0343196 0.949362 0.312303 104 126 130
1.47495 -8.90974 0.320516 0.706636 0.689827 0.157496 121 143 148
1.47647 -8.88898 0.320754 0.563755 0.713524 0.41601 122 144 149
1.56382 -8.85729 0.274483 -0.0138488 0.968031 0.250447 112 133 138
1.76319 -8.82196 0.318907 -0.144967 0.925237 0.350601 123 143 147
1.83081 -8.79795 0.274552 0.0435813 0.978519 0.201498 112 133 137
1.90997 -8.89646 0.231337 0.0873719 0.97053 0.224584 118 139 141
2.15228 -8.76599 0.215149 -0.0534542 0.964405 0.258969 100 125 134
2.28781 -8.88909 0.247464 0.0676071 0.977914 0.197772 101 124 129
2.34325 -8.87876 0.184537 0.011411 0.999935 0.00052811 108 131 134
2.43644 -8.94409 0.239337 0.104505 0.955435 0.276085 100 121 126
2.50534 -8.91284 0.183588 -0.0177955 0.618237 0.78579 79 102 110
2.62083 -8.95617 0.219642 0.0981686 0.942825 0.318504 114 140 148
3.10578 -7.63148 0.0273278 -0.731471 0.572774 -0.369974 164 190 200
3.18986 -7.52495 0.0216195 -0.540946 0.824558 -0.165776 163 191 202
3.24454 -7.47059 0.0362559 -0.61501 0.689507 -0.382547 158 186 197
3.25674 -7.46636 0.0226028 -0.640788 0.737923 -0.211802 158 187 198
3.31498 -7.41723 0.0346957 -0.670248 0.652553 -0.353473 169 198 209
3.37369 -7.38369 -0.00540948 -0.369129 0.915736 -0.158657 156 184 196
3.4332 -7.35216 0.0293576 -0.0314819 0.996491 -0.0775548 168 196 208
3.48896 -7.32595 -0.00299867 -0.24379 0.947496 -0.206927 163 191 204
3.54669 -7.29968 -0.0399512 -0.568302 0.812487 -0.129995 153 181 193
3.55083 -7.31554 -0.0414345 -0.680669 0.725844 -0.0991999 152 180 192
3.63919 -7.23953 -0.0400871 -0.511249 0.839417 -0.184402 184 213 224
3.73242 -7.22347 -0.0138635 0.44644 0.88446 -0.135728 181 210 221
3.80944 -7.1465 -0.0199336 -0.507027 0.857561 -0.0866703 156 184 196
4.00467 -7.11124 -0.0458411 0.347647 0.923778 -0.160549 156 184 195
3.97525 -7.12782 -0.0476494 0.355571 0.933369 -0.0488937 146 175 186
4.0734 -7.13521 -0.0846811 -0.293471 0.955343 0.034548 169 196 209
4.1228 -7.08709 -0.115235 -0.800687 0.598992 0.0104384 164 192 205
4.2578 -7.01212 -0.0904516 0.36359 0.911433 0.192592 165 195 207
4.3141 -7.00504 -0.130347 0.353155 0.783485 -0.511305 168 196 208
4.38267 -7.0215 -0.151081 -0.832094 0.549808 0.0730175 143 172 184
4.38944 -6.95029 -0.111088 -0.52112 0.525941 -0.672175 133 162 174
4.5621 -6.87963 -0.159412 0.469766 0.872034 0.137393 156 180 192
4.61786 -6.8794 -0.191026 0.320918 0.934277 -0.155367 161 185 198
4.80563 -6.83963 -0.167597 -0.350695 0.854979 -0.382132 147 170 181
5.01654 -6.81889 -0.20234 0.0163869 0.973822 -0.22672 144 164 172
5.11248 -6.85343 -0.202334 0.363859 0.915638 -0.170919 157 177 185
5.28968 -6.95657 -0.235231 0.382937 0.905922 0.180732 153 164 171
6.34654 -8.47064 -0.275708 -0.943158 0.293128 0.15662 82 80 77
6.38723 -8.53434 -0.267245 -0.956619 0.20412 0.207884 83 81 77
6.38723 -8.53434 -0.267245 -0.956619 0.20412 0.207884 83 81 77
6.35262 -8.23606 -0.269012 -0.949188 0.21658 0.228334 91 86 83
6.42203 -8.02955 -0.343196 -0.97375 0.205635 -0.0975932 90 80 80
6.41096 -7.61746 -0.357764 -0.949122 0.314329 0.0190959 125 113 119
6.47426 -7.42747 -0.337716 -0.480964 0.550636 -0.682257 148 87 105
6.52784 -7.3573 -0.339249 -0.554321 0.737088 -0.386561 188 33 72
7.04449 -7.26461 -0.441975 0.373437 0.777118 0.50659 202 27 64
-3.08733 -7.90837 0.886859 0.481629 0.873977 -0.0647867 122 130 128
-3.03565 -7.98688 0.869882 0.903377 0.427555 -0.0332596 110 118 116
-2.99288 -8.16654 0.921381 0.629104 0.402288 -0.665125 110 115 114
-2.92861 -8.25397 0.884894 0.954309 0.26758 -0.13302 70 74 73
-2.86557 -8.31534 0.884909 0.654688 0.629026 -0.419177 27 35 31
-2.78314 -8.34956 0.841585 -0.355619 0.929238 0.10026 30 40 37
-2.69963 -8.31957 0.873429 -0.409417 0.903622 -0.125874 56 68 66
-2.60538 -8.24674 0.832109 -0.342281 0.924782 0.166201 86 98 99
-2.58345 -8.27943 0.805933 -0.429891 0.902866 0.00505097 109 122 123
-2.53739 -8.29948 0.845041 -0.205594 0.974122 -0.0939013 94 107 109
-1.28736 -8.43008 0.673681 0.268289 0.96272 -0.034513 45 61 60
-1.23349 -8.38429 0.700402 -0.088651 0.930134 -0.35636 49 63 61
-1.14853 -8.6785 0.667484 0.200545 0.843293 0.498637 80 89 87
-0.87611 -8.80521 0.675812 -0.365701 0.930568 0.0175071 91 105 106
-0.81133 -8.89892 0.710858 0.424435 0.822941 -0.377655 118 133 133
-0.731509 -8.92997 0.682552 0.462762 0.862227 -0.20595 104 121 120
-0.381783 -8.88337 0.650765 -0.357932 0.933682 0.0110523 107 126 128
-0.381063 -8.89554 0.645209 -0.455813 0.888333 0.0556611 107 126 129
-0.292834 -8.87406 0.602215 0.769101 0.610741 0.188358 70 91 96
-0.216907 -8.92396 0.640884 0.151643 0.94736 0.281982 104 122 124
-0.132469 -8.93143 0.603416 0.0710781 0.882478 0.464952 112 131 132
-0.045649 -8.9134 0.556267 -0.0319714 0.824217 0.565371 93 115 118
0.111932 -8.93863 0.551711 0.043524 0.889835 0.454201 53 81 90
0.194784 -8.9738 0.591504 0.0243311 0.896837 0.441692 64 89 94
0.276004 -8.95648 0.548746 -0.00568341 0.886951 0.461829 111 132 134
0.357945 -8.9357 0.506751 0.022126 0.936761 0.349268 83 102 104
0.488266 -8.92202 0.507683 0.113436 0.962991 0.244499 98 125 131
0.611983 -8.91262 0.51118 -0.41089 0.834839 0.366351 47 80 90
0.719122 -8.92166 0.458891 0.597284 0.801817 -0.0184817 73 99 105
0.794736 -8.92387 0.461756 0.00317652 0.925542 0.378633 109 132 137
0.938654 -8.9249 0.45228 0.563686 0.717522 0.40917 94 119 121
1.01974 -8.94031 0.495121 -0.021961 0.908316 0.417707 71 100 107
1.10138 -8.92229 0.450893 0.0586711 0.893974 0.444262 78 106 113
1.18121 -8.91069 0.405993 0.636755 0.639563 0.4307 92 116 119
1.18146 -8.90969 0.406774 0.655856 0.645149 0.391965 92 116 119
1.33245 -8.8709 0.400193 -0.0439373 0.96509 0.258207 114 136 139
1.52529 -8.86493 0.435587 -0.0173717 0.935541 0.35279 68 94 99
1.60427 -8.85106 0.395318 0.020383 0.952339 0.30436 118 142 147
1.67936 -8.82991 0.354693 -0.00972427 0.925934 0.37756 110 130 133
1.75771 -8.84018 0.40086 -0.121387 0.943946 0.30697 88 109 113
1.91164 -8.90705 0.316589 -0.059471 0.968534 0.241672 90 114 118
1.90112 -8.94794 0.394815 -0.0490003 0.94705 0.317326 115 137 142
1.98659 -8.90688 0.359461 -0.248107 0.934745 0.254351 105 129 133
2.0631 -8.9159 0.315596 0.0106801 0.971708 0.235944 108 129 133
2.13684 -8.91478 0.358785 0.0358354 0.960431 0.276202 98 119 122
2.35853 -8.95849 0.286005 0.191885 0.949326 0.248919 93 116 120
2.45086 -8.97083 0.313287 0.137448 0.945141 0.296337 110 132 137
2.94588 -7.76283 0.176273 -0.742517 0.656043 0.135187 157 182 191
2.9949 -7.77958 0.155096 -0.847705 0.529867 0.0252404 169 193 201
3.04644 -7.6267 0.111754 -0.740299 0.598607 -0.305984 169 194 203
3.11406 -7.54658 0.112186 -0.693572 0.631855 -0.346003 183 207 218
3.18913 -7.49131 0.112235 -0.538064 0.739404 -0.404683 164 190 200
3.24831 -7.42919 0.0966979 -0.558119 0.817705 -0.14093 177 204 215
3.3146 -7.38139 0.0971134 -0.536137 0.83499 -0.123888 186 213 224
3.37136 -7.35833 0.0680459 -0.241334 0.958746 -0.150213 150 178 190
3.43169 -7.33481 0.102566 0.218922 0.975725 0.00587169 155 183 195
3.48773 -7.31386 0.067276 -0.294569 0.947662 -0.123152 165 194 206
3.52545 -7.2694 0.0756191 -0.486598 0.866635 -0.110304 183 212 223
3.60042 -7.25726 0.0264745 -0.274189 0.958995 -0.0717588 144 173 186
3.6687 -7.21905 0.0261773 -0.322292 0.942161 -0.0919764 178 208 218
3.65826 -7.22848 0.0618268 0.119195 0.992844 0.00736945 152 181 192
3.73412 -7.2242 0.0573922 0.43668 0.780187 -0.447906 148 177 189
3.77253 -7.14827 0.046134 -0.451809 0.847784 -0.277725 151 179 191
3.87649 -7.12211 -0.0207724 -0.417561 0.894527 -0.159577 176 205 216
3.83976 -7.12708 0.0452758 -0.514256 0.842007 -0.162987 150 178 190
3.90813 -7.07325 -0.00884598 0.356277 0.932623 0.057275 180 210 220
3.969 -7.09956 0.02842 0.238734 0.970073 -0.044322 182 211 222
4.03382 -7.13595 -0.0139755 0.110258 0.990121 0.0866171 179 207 219
4.10573 -7.12478 -0.0181616 -0.633865 0.769048 -0.082341 169 196 208
4.17898 -7.11381 -0.0213569 0.0508571 0.998627 -0.0125795 184 211 223
4.25935 -7.02978 -0.0203215 0.266296 0.955979 0.123252 140 168 180
4.3015 -6.94963 -0.0518102 0.397546 0.903349 0.160992 146 174 186
4.49953 -6.8504 -0.114067 0.643785 0.760062 -0.0885815 180 206 218
4.61544 -6.88022 -0.0620838 0.111001 0.982966 0.146477 139 165 178
4.64116 -6.83798 -0.126458 -0.573627 0.815952 -0.0719342 160 185 197
4.7045 -6.81088 -0.128183 -0.666355 0.744215 0.0459904 165 190 202
4.79973 -6.81038 -0.0959614 0.177093 0.979017 -0.10082 173 195 207
4.87527 -6.88165 -0.134198 0.440786 0.890667 -0.111443 138 160 171
4.95477 -6.80841 -0.168047 0.114679 0.97478 -0.191447 159 180 189
5.01271 -6.80809 -0.13512 -0.0725284 0.996929 0.0295367 171 190 199
5.14323 -6.86339 -0.152531 0.244534 0.806937 -0.53764 164 184 193
5.22638 -6.92947 -0.191612 0.492362 0.870365 -0.00674477 148 166 174
5.27943 -6.95025 -0.149778 0.512402 0.850761 0.116831 125 138 144
5.29038 -6.96275 -0.169199 -0.454971 0.865297 0.210386 132 145 151
5.37074 -7.02212 -0.203459 0.576722 0.816833 0.013219 137 144 148
5.42433 -7.06743 -0.204337 0.571619 0.820519 0.000326946 129 131 135
5.55241 -7.24018 -0.213768 0.573086 0.816395 0.0712199 107 104 110
5.43225 -7.05285 -0.204333 0.648814 0.760692 0.0196994 127 128 132
6.34696 -8.55671 -0.189337 -0.772605 0.554772 0.308723 84 81 77
6.24276 -8.19715 -0.168266 -0.973185 0.228188 0.0290194 90 85 81
6.30501 -8.15342 -0.172559 -0.955439 0.272453 -0.113604 100 94 91
6.39862 -7.87243 -0.266293 -0.940401 0.337016 0.0454517 89 77 78
6.41637 -7.7201 -0.263196 -0.958768 0.278783 -0.0551756 104 77 85
6.44393 -7.53734 -0.274814 -0.986236 0.164559 0.0160749 132 109 117
6.44071 -7.47831 -0.273641 -0.589194 0.366078 -0.720304 133 113 121
6.48854 -7.39305 -0.272365 -0.777461 0.628799 -0.0129417 143 75 93
6.58162 -7.30058 -0.330285 -0.884451 0.445779 -0.137938 200 17 56
6.89221 -7.28081 -0.302532 0.422734 0.820977 0.383787 179 8 36
-3.09538 -7.88776 0.961565 0.906343 0.421406 -0.0309612 106 113 112
-3.08757 -7.98941 0.988608 0.916836 0.399196 -0.00740416 108 114 114
-3.04882 -8.03201 0.975993 0.791769 0.505524 -0.342852 109 115 114
-3.04271 -7.98562 0.964597 0.903848 0.425576 -0.0440903 111 117 116
-2.9982 -8.14957 0.983731 0.728587 0.655234 -0.199572 95 101 99
-2.95131 -8.22821 0.993126 0.908429 0.41741 0.0229176 59 64 61
-2.8916 -8.2981 0.954983 0.884685 0.37236 -0.280501 50 57 53
-2.82117 -8.34503 0.954927 0.415974 0.902347 -0.112853 63 73 70
-2.70144 -8.31327 0.949113 -0.422202 0.906253 -0.021251 70 82 81
-2.64373 -8.31678 0.919103 -0.408296 0.906836 0.104606 80 91 92
-2.57427 -8.28012 0.882915 -0.414109 0.909828 0.0269787 119 131 133
-2.50706 -8.30682 0.935288 0.21733 0.583067 0.782816 139 153 153
-2.37237 -8.332 0.90033 0.0401665 0.988564 -0.145356 137 153 153
-1.29587 -8.37315 0.739494 0.243899 0.960553 -0.13361 62 79 77
-1.29458 -8.37108 0.814847 0.430553 0.895826 0.110092 63 78 75
-1.23327 -8.38469 0.778692 0.410312 0.908897 -0.0745066 55 67 64
-1.18246 -8.45016 0.743125 0.862537 0.318207 -0.393413 43 55 53
-1.21741 -8.70795 0.7512 0.554569 0.786103 -0.272939 62 72 70
-0.725326 -8.75701 0.770873 0.623171 0.523902 -0.580676 119 135 135
-0.722279 -8.77547 0.775315 0.695317 0.576671 -0.428934 118 134 134
-0.506121 -8.88992 0.718499 -0.0119068 0.734217 -0.67881 112 128 129
0.265957 -8.9574 0.627031 0.0474892 0.943248 0.328677 92 114 116
0.35752 -8.98084 0.591415 -0.0265712 0.910568 0.412505 115 136 137
0.488325 -8.93425 0.593235 -0.00816345 0.88343 0.468493 67 94 99
0.646476 -8.96163 0.59295 0.176794 0.855929 0.485932 64 93 104
0.757654 -8.963 0.539735 0.0645502 0.912619 0.403684 109 134 140
0.822194 -8.96085 0.572334 0.0553229 0.893601 0.445441 100 122 125
0.837733 -8.96473 0.580891 0.0526124 0.876697 0.478157 104 126 129
0.94356 -8.94783 0.536107 -0.0489004 0.882227 0.468278 120 143 147
1.01696 -8.98835 0.579781 -0.0372651 0.848851 0.527317 64 91 99
1.10389 -8.95548 0.534748 0.0486124 0.897283 0.438771 47 78 89
1.18268 -8.9472 0.490827 0.661787 0.649041 0.375212 64 92 99
1.18589 -8.97822 0.575304 0.646968 0.648995 0.400297 61 90 97
1.18517 -8.93938 0.490675 0.661717 0.650291 0.373166 65 93 100
1.25985 -8.9236 0.49465 -0.0654587 0.891967 0.447336 118 142 147
1.34501 -8.9934 0.534551 0.00886915 0.908958 0.416793 80 101 103
1.44251 -8.88672 0.477679 -0.0873775 0.909476 0.406472 114 136 140
1.52666 -8.89752 0.520421 -0.048502 0.902038 0.428924 77 105 112
1.52555 -8.89733 0.519773 -0.000673912 0.908523 0.417833 78 105 113
1.67635 -8.85646 0.437459 -0.0584358 0.96803 0.243931 83 109 116
1.90292 -8.97134 0.47981 -0.022892 0.945107 0.325959 103 122 124
2.06039 -8.92065 0.401734 -0.0672357 0.621 0.780922 108 133 139
1.98142 -8.94694 0.440225 -0.106773 0.929402 0.353287 82 106 111
2.12612 -8.99379 0.442295 0.435149 0.777022 0.454844 99 127 133
2.29684 -8.96356 0.404943 0.0650307 0.938227 0.339855 92 115 119
2.35976 -8.97886 0.371982 0.202478 0.912946 0.354305 91 115 119
2.37193 -8.978 0.360649 0.155378 0.928401 0.337535 90 113 117
2.4521 -8.99321 0.39935 0.0331163 0.944451 0.326979 94 118 123
2.83825 -7.80749 0.25584 -0.685028 0.725705 -0.0639536 109 137 145
2.90695 -7.82083 0.249664 -0.659775 0.689202 -0.299494 143 169 178
2.95827 -7.76067 0.239457 -0.818637 0.574301 0.00349743 156 180 190
2.96136 -7.75842 0.246148 -0.856109 0.515336 0.0387968 159 182 191
3.00967 -7.65651 0.247299 -0.786003 0.514618 -0.342589 177 202 210
3.06168 -7.55931 0.184772 -0.710609 0.601144 -0.365596 146 170 179
3.13258 -7.49373 0.185728 -0.550383 0.757967 -0.350093 182 207 217
3.20663 -7.43128 0.186309 -0.555264 0.738016 -0.383424 162 188 199
3.25498 -7.36565 0.200603 -0.555917 0.797534 -0.234298 148 175 186
3.31272 -7.35351 0.172495 -0.362123 0.911281 -0.196045 157 185 196
3.37104 -7.34081 0.138441 -0.10472 0.970846 -0.21562 180 208 220
3.42465 -7.32809 0.176427 0.258115 0.68943 -0.676803 180 208 219
3.43314 -7.32754 0.172066 0.196509 0.976103 -0.0927746 182 209 220
3.48655 -7.30734 0.141005 -0.513485 0.813588 -0.272778 173 201 213
3.5541 -7.25404 0.141793 -0.418432 0.889643 -0.182894 171 200 211
3.5964 -7.20792 0.0974699 0.0603005 0.799908 0.597086 164 193 204
3.72093 -7.13971 0.111466 0.504364 0.614794 -0.606338 156 185 197
3.86225 -7.11738 0.107435 -0.477906 0.870245 -0.119496 158 187 199
3.91676 -7.09821 0.0751747 0.35905 0.928933 -0.0903744 162 191 203
4.02973 -7.0951 0.0793467 -0.0940394 0.982746 -0.159268 147 176 188
4.12957 -7.0893 0.0467398 -0.51936 0.825683 -0.220254 146 175 188
4.19279 -7.00551 0.0164723 -0.1339 0.990889 -0.0145156 176 205 216
4.24846 -6.9784 0.0481819 0.215777 0.973387 0.0771822 181 208 220
4.25596 -7.02663 0.0479942 0.193713 0.976582 0.0936139 180 208 220
4.29438 -6.9261 0.0183227 -0.0704615 0.997047 0.0305465 182 208 220
4.29557 -6.92723 0.0196928 -0.0561589 0.997154 0.0502963 180 207 219
4.35108 -6.9211 -0.0143549 -0.0498164 0.688996 0.723051 183 211 223
4.35226 -6.92181 -0.0129165 -0.0358318 0.701132 0.71213 183 211 223
4.46006 -6.92694 -0.0378684 -0.38584 0.919127 0.0795777 138 165 177
4.56651 -6.87459 0.00736907 0.434263 0.897417 0.0778392 147 174 185
4.51151 -6.86954 -0.0308828 0.564202 0.796851 -0.216112 146 174 185
4.6196 -6.85567 -0.0266081 -0.478951 0.877049 -0.0372957 154 180 192
4.67662 -6.8441 -0.0629823 -0.648684 0.760296 -0.0340434 139 166 178
4.72668 -6.80358 -0.0276358 0.213148 0.968057 0.132036 138 164 177
4.73113 -6.78113 -0.0620623 -0.380368 0.914581 0.137339 156 181 194
4.89686 -6.79018 -0.0772525 0.218861 0.932751 0.286489 153 172 183
4.96148 -6.82104 -0.0471799 -0.283761 0.94574 0.158288 126 146 156
4.95516 -6.81244 -0.101766 -0.0737226 0.994694 0.0717519 166 186 195
5.01274 -6.81432 -0.0682541 0.0133225 0.995755 0.0910727 164 184 194
5.07568 -6.82753 -0.102907 0.324194 0.9352 0.142472 148 170 178
5.07224 -6.82458 -0.109317 0.308387 0.937056 0.163778 148 169 178
5.13517 -6.8434 -0.0718114 0.163013 0.765535 -0.622401 130 150 159
5.22574 -6.93992 -0.101117 0.489552 0.864499 0.113931 131 147 156
5.25695 -6.94734 -0.0682831 0.461795 0.886505 0.0292251 141 153 159
5.28354 -6.9391 -0.0947144 0.555387 0.819651 -0.14042 135 145 150
5.40528 -7.114 -0.116895 0.1742 0.601104 -0.779954 123 127 129
5.50347 -7.21388 -0.118885 0.571995 0.815666 0.0866652 128 126 130
6.24676 -8.65489 -0.086447 -0.857538 0.513582 0.0293679 88 84 82
6.27336 -8.4614 -0.0847129 -0.890074 0.454049 -0.0400961 87 84 81
6.33174 -8.25023 -0.150743 -0.961115 0.220673 0.166014 100 94 91
6.3652 -8.14042 -0.12809 -0.969022 0.212276 0.126232 106 100 96
6.44058 -7.75158 -0.205447 -0.981191 0.188408 0.0420389 106 92 98
6.44317 -7.57532 -0.201634 -0.820977 0.195261 0.536535 111 89 99
6.4676 -7.44465 -0.198371 -0.1834 0.484605 0.855291 134 120 128
6.43932 -7.35406 -0.214468 -0.359159 0.615048 0.701941 139 121 128
6.51443 -7.22454 -0.232764 -0.43134 0.603894 0.670267 176 35 64
6.59751 -7.17437 -0.239781 -0.464334 0.85109 0.245028 186 17 46
6.64823 -7.12394 -0.265979 0.376782 0.808241 0.452528 184 12 41
6.81796 -7.17853 -0.284539 0.310063 0.863157 -0.398523 177 12 39
-3.12477 -7.89395 1.06729 0.931589 0.355793 -0.074515 117 123 121
-3.03956 -7.92453 1.05463 0.894273 0.428481 -0.129147 102 107 105
-3.05401 -7.93054 1.05806 0.914743 0.40399 -0.00617056 108 114 113
-2.98534 -8.00125 1.04952 0.823713 0.440815 -0.356621 75 81 78
-2.94935 -8.16313 1.03996 0.279348 0.921221 -0.270771 51 58 54
-2.70085 -8.31017 1.02807 -0.420972 0.907034 0.00850823 103 112 111
-2.64431 -8.29393 0.987997 -0.419646 0.906849 0.0390205 86 96 96
-2.57666 -8.2576 1.029 -0.327409 0.818215 -0.472576 116 127 128
-2.31872 -8.35046 1.00916 0.0439418 0.510038 -0.859029 140 156 155
-1.23518 -8.38933 0.840442 0.463783 0.880614 -0.09708 60 71 68
-0.803885 -8.7647 0.798788 -0.00970407 0.509185 -0.860602 99 116 118
-0.428204 -8.79602 0.773034 -0.101616 0.488806 -0.866454 64 85 89
0.332166 -8.87741 0.723536 -0.00925985 0.71962 -0.694306 104 126 126
0.733145 -8.92286 0.629375 -0.0408059 0.889464 0.45518 75 99 105
0.945454 -9.00032 0.621748 0.0312852 0.807016 0.5897 86 109 114
1.10387 -8.99696 0.619464 0.664212 0.648084 0.372572 106 132 140
1.26448 -9.02014 0.576825 -0.0046863 0.911995 0.410175 103 126 131
1.34551 -9.03752 0.619773 -0.0286266 0.880109 0.473909 119 142 144
1.44661 -8.92241 0.56097 -0.0698365 0.84762 0.525988 113 136 140
1.44735 -8.9229 0.56275 -0.106802 0.855114 0.50732 113 135 139
1.52965 -8.94246 0.608623 0.00291595 0.850007 0.526764 75 100 107
1.97706 -8.99329 0.526609 -0.123655 0.901799 0.414087 118 143 148
2.05368 -8.98214 0.484312 -0.02831 0.963803 0.26511 61 91 101
2.13634 -8.9601 0.526864 -0.0250612 0.959902 0.279213 48 80 90
2.30159 -8.98697 0.480998 0.0402922 0.945744 0.322406 105 129 133
2.78922 -7.70335 0.345936 -0.846593 0.532232 0.00306725 119 146 155
2.85744 -7.73679 0.340764 -0.823766 0.56418 -0.0557798 151 176 184
2.92344 -7.75372 0.32881 -0.855597 0.514549 -0.0565015 173 197 205
2.92263 -7.72702 0.336871 -0.856747 0.515384 -0.0190777 172 195 203
3.00406 -7.58294 0.268863 -0.7248 0.572477 -0.38332 183 207 216
3.08019 -7.49642 0.258482 -0.58813 0.746724 -0.310654 155 180 188
3.07038 -7.49905 0.269391 -0.685686 0.611477 -0.394881 166 190 199
3.14917 -7.4388 0.258677 -0.500809 0.810324 -0.304245 151 176 186
3.19723 -7.40338 0.245772 -0.496998 0.844913 -0.197773 163 188 199
3.25191 -7.366 0.21127 -0.561488 0.823936 -0.0765603 156 183 193
3.31106 -7.32911 0.245115 -0.254488 0.949307 -0.184531 147 174 185
3.47719 -7.2611 0.211795 -0.405649 0.892328 -0.197991 150 177 189
3.71988 -7.15101 0.187448 0.448078 0.859339 0.246501 176 204 216
3.80455 -7.13972 0.149 -0.456124 0.889873 -0.00873223 177 205 217
3.91561 -7.08424 0.144746 0.216127 0.973705 -0.0720229 146 174 186
3.97434 -7.10037 0.111094 0.319428 0.93738 -0.138867 147 175 187
4.03003 -7.08651 0.151105 -0.211506 0.976291 -0.0460484 182 210 222
4.08619 -7.07075 0.117021 -0.600081 0.798817 -0.042348 180 208 221
4.15526 -7.0517 0.114612 0.473672 0.880476 -0.0199398 139 169 181
4.19479 -7.01395 0.0825491 0.0391348 0.998948 0.023923 176 205 217
4.25467 -7.02391 0.115272 0.184638 0.970134 0.157318 159 188 200
4.29444 -6.93291 0.0862905 -0.190295 0.978142 0.083822 151 178 190
4.35006 -6.91496 0.0543573 0.519847 0.844731 0.127235 142 169 181
4.45005 -6.88586 0.0329055 -0.185841 0.968846 0.163709 171 198 210
4.51746 -6.9031 0.0462005 0.50468 0.784935 -0.35941 145 173 184
4.625 -6.87267 0.0420774 -0.419 0.905695 0.0644702 178 205 216
4.67983 -6.85639 0.00623048 -0.492681 0.870172 -0.00818208 180 208 219
4.72903 -6.81113 0.038726 0.29283 0.956152 0.00477078 156 180 193
4.79923 -6.86784 0.000183233 0.58626 0.80757 0.0642615 148 171 184
4.83655 -6.79854 0.0306223 0.321916 0.945495 0.0490797 134 155 168
4.89339 -6.803 -0.00667025 0.205421 0.920988 0.331033 132 151 163
4.95522 -6.81814 -0.0348268 -0.169826 0.98128 0.0908182 123 143 153
5.01079 -6.81275 -0.000864098 0.0159354 0.997153 0.0736984 146 168 178
5.07631 -6.83322 -0.0457486 0.262017 0.957801 0.118169 167 189 198
5.07414 -6.82815 -0.035484 0.266611 0.963217 -0.033635 170 192 202
5.14649 -6.88012 -0.0102486 0.525342 0.846221 -0.0890292 166 185 194
5.26729 -6.96345 -0.0170004 0.538448 0.842318 -0.0239617 133 141 147
5.38988 -7.10529 -0.0266966 0.579487 0.814865 0.0137467 121 121 124
5.42731 -7.08269 -0.0210969 0.457797 0.65778 -0.59812 128 127 128
5.50849 -7.12019 -0.020167 0.596059 0.730291 -0.333751 126 115 117
6.14299 -8.46841 0.0187467 -0.936527 0.255217 0.240379 74 55 53
6.29308 -8.46454 -0.0552107 -0.972989 0.228197 0.034916 94 92 91
6.32788 -8.29708 -0.0341644 -0.958211 0.212223 0.191815 103 101 99
6.39585 -8.18732 -0.0275017 -0.969638 0.194327 0.148457 97 100 98
6.38282 -7.89881 -0.103826 -0.95805 0.145688 -0.246809 103 104 107
6.59105 -7.21322 -0.18053 -0.164239 0.592082 0.788964 157 41 61
6.71311 -7.24783 -0.20737 0.423024 0.906 -0.0146308 171 18 44
6.93223 -7.29935 -0.202266 0.289479 0.851892 -0.436443 175 18 44
6.90119 -7.31006 -0.212874 0.220265 0.841021 -0.494133 174 18 45
-3.12915 -7.73566 1.10379 0.87575 0.45819 -0.152064 113 119 118
-3.10824 -7.71947 1.0826 0.923179 0.378261 -0.0682535 114 120 119
-3.10824 -7.71947 1.0826 0.923179 0.378261 -0.0682535 114 120 119
-3.03173 -7.98301 1.1535 0.923218 0.38415 0.00983912 78 82 80
-3.01304 -7.9157 1.11617 0.797691 0.60209 -0.0342931 68 74 72
-2.87769 -8.17702 1.08904 0.753463 0.402896 -0.519585 62 71 71
-2.7989 -8.23355 1.08812 0.633455 0.232301 -0.738086 77 86 86
-2.70355 -8.2188 1.09958 -0.067718 0.548398 -0.833471 101 110 108
-2.63432 -8.24971 1.07161 -0.0329676 0.649813 -0.759379 106 115 114
-2.53192 -8.26029 1.05121 -0.345281 0.812485 -0.469733 109 122 123
-2.36487 -8.18107 1.09151 0.171998 0.452812 -0.874859 91 108 109
-2.34128 -8.32859 1.05823 0.0999488 0.484162 -0.869251 121 137 137
-2.24436 -8.32596 1.06922 0.0972112 0.482965 -0.870227 120 137 137
-2.24407 -8.33072 1.03657 0.083444 0.540009 -0.837513 136 154 153
-2.14746 -8.32398 1.07993 0.104858 0.478747 -0.871668 122 140 138
-2.14712 -8.3216 1.01689 -0.0826693 0.801301 -0.592522 144 163 161
-2.08473 -8.29733 1.04313 -0.0100558 0.678215 -0.734795 136 155 153
-2.07629 -8.30489 1.00749 -0.0191649 0.877677 -0.47887 146 166 164
-2.01719 -8.29895 1.03818 0.0429068 0.77054 -0.635946 139 159 158
-1.93831 -8.31953 1.02213 0.303782 0.81286 -0.496966 145 166 166
-1.95107 -8.32025 1.01112 -0.117154 0.818595 -0.562297 148 168 168
-1.89062 -8.37309 1.04888 0.0195435 0.514634 -0.857187 135 157 159
-1.87112 -8.34374 0.999925 0.307503 0.813481 -0.493651 150 171 171
-1.85754 -8.35122 0.999416 0.265299 0.865572 -0.424738 150 172 171
-1.81051 -8.34862 0.969945 0.387152 0.811547 0.437612 152 173 172
-1.78623 -8.34245 1.02514 0.204217 0.81493 -0.542387 147 169 170
-1.75329 -8.37541 1.00222 -0.25426 0.741407 -0.621022 152 173 173
-1.69996 -8.32825 1.02095 0.0478065 0.99885 -0.00365893 149 171 171
-1.68334 -8.37003 0.96204 0.00472571 0.986078 0.166216 151 172 172
-1.42559 -8.41023 0.954642 -0.525553 0.843295 -0.112461 147 169 168
-1.2651 -8.41642 0.930815 0.609938 0.792439 0.00400348 65 77 75
-1.19387 -8.46481 0.929243 0.647634 0.57898 -0.49533 83 93 91
-0.970866 -8.54308 0.885502 0.00289135 0.578591 -0.815612 112 128 127
0.280592 -8.83626 0.77672 -0.0232007 0.496208 -0.867893 113 133 134
0.819488 -9.002 0.774269 0.484004 0.772228 -0.411587 119 141 143
1.04432 -9.04611 0.768505 0.463687 0.789404 -0.402289 117 141 144
1.2621 -9.02871 0.663178 -0.0377945 0.908014 0.417231 99 122 126
1.44353 -8.96897 0.651173 0.035234 0.883601 0.466913 100 123 127
1.98091 -9.05675 0.611194 0.373996 0.762936 0.52731 74 97 104
2.04407 -9.05849 0.572132 0.392423 0.768273 0.505727 61 89 100
2.12566 -9.07132 0.598893 -0.0156032 0.867298 0.497545 78 106 116
2.75547 -7.70055 0.424088 -0.749651 0.661802 0.00649297 103 130 137
2.75113 -7.72539 0.423444 -0.736545 0.676104 0.019627 103 129 138
2.82621 -7.7712 0.418389 -0.745077 0.666471 -0.0260095 130 155 163
2.88695 -7.71332 0.418008 -0.849149 0.526949 -0.0356462 155 178 185
2.94155 -7.5845 0.354771 -0.805 0.582657 0.111741 162 186 193
3.05814 -7.32717 0.363215 -0.351024 0.924062 -0.151298 184 206 215
3.19559 -7.37369 0.323523 -0.653871 0.654578 -0.379448 173 198 208
3.30673 -7.30046 0.316267 0.140435 0.985861 -0.091415 175 201 212
3.2535 -7.34697 0.273611 -0.535843 0.811521 -0.233034 187 213 223
3.2543 -7.34302 0.277835 -0.487653 0.849777 -0.200185 187 213 223
3.36564 -7.30779 0.282455 0.177429 0.983457 -0.0364897 144 171 182
3.41977 -7.28928 0.25006 -0.265811 0.931982 -0.246483 152 179 191
3.41976 -7.30199 0.249957 0.311296 0.719683 -0.620606 151 179 191
3.47709 -7.24414 0.285886 -0.411777 0.895459 -0.169091 187 214 226
3.53843 -7.23309 0.242621 -0.360516 0.922803 -0.135876 153 181 193
3.61805 -7.1349 0.219086 0.336729 0.941592 0.0041985 180 209 220
3.67694 -7.15459 0.253197 0.233223 0.971811 0.0345093 158 186 198
3.74428 -7.12224 0.253004 -0.51762 0.814738 -0.261288 157 185 197
3.8039 -7.09704 0.212431 -0.642883 0.740659 -0.195255 148 177 189
3.85896 -7.08313 0.177541 0.208989 0.863638 0.458751 181 210 222
3.91585 -7.07905 0.214332 0.245971 0.964411 -0.0970064 182 210 222
3.97333 -7.0881 0.181279 0.260635 0.954434 -0.145347 176 204 216
4.0838 -7.10014 0.21624 -0.524613 0.823653 -0.215352 157 184 196
4.0802 -7.10518 0.213407 -0.483105 0.841457 -0.241992 157 184 196
4.19861 -7.0933 0.20476 0.367143 0.930163 -0.00180092 156 184 196
4.29205 -6.92402 0.151993 -0.359408 0.932238 -0.0419372 158 185 198
4.42901 -6.94908 0.127295 0.421737 0.798151 -0.430224 141 169 182
4.62325 -6.85687 0.109842 -0.421765 0.904423 0.0642806 137 163 175
4.58833 -6.84974 0.113138 -0.331853 0.935464 0.121579 148 175 186
4.67839 -6.84361 0.0736869 -0.362334 0.927069 -0.0962148 167 193 205
4.73689 -6.83374 0.103536 0.275115 0.961354 -0.010523 178 202 215
4.80638 -6.88704 0.0659761 0.470831 0.882178 0.00894309 138 161 173
4.89364 -6.80771 0.0672737 0.0463479 0.996876 -0.06396 172 193 204
4.95567 -6.82572 0.0331693 -0.264079 0.961982 -0.0696552 165 186 196
5.01209 -6.81231 0.064838 0.147384 0.975652 -0.162423 139 161 172
5.0757 -6.83607 0.0308109 0.321127 0.945151 0.0597262 166 187 198
5.15091 -6.89895 0.0657967 0.540166 0.838568 0.0708825 132 149 158
5.27914 -7.00944 0.0541327 0.582935 0.792308 0.180099 119 124 129
5.377 -7.14318 0.0513126 0.542544 0.839883 0.0155807 142 142 145
5.37211 -7.12695 0.0535635 0.582985 0.811999 0.0280201 142 142 145
6.21757 -8.39338 0.0320441 -0.96868 0.246056 0.0333947 93 88 87
6.2126 -8.39332 0.0186616 -0.682141 0.599903 0.418092 91 86 85
6.25603 -8.26486 0.0226925 -0.931835 0.361866 0.0271329 99 97 97
6.40731 -7.73093 -0.0363256 -0.983069 0.182208 0.0193573 102 108 112
6.46152 -7.6615 -0.043235 -0.988076 0.117819 0.0991227 96 101 107
6.50052 -7.53377 -0.0405118 -0.774696 0.443347 0.450877 112 102 113
6.61993 -7.44124 -0.0601336 0.313346 0.730022 0.607356 134 75 95
6.58692 -7.4153 -0.0854393 0.363479 0.826859 0.429171 143 90 108
6.58691 -7.29843 -0.110671 -0.107648 0.976542 0.186488 138 99 109
6.70835 -7.27979 -0.136576 0.432069 0.887298 0.161302 139 75 87
6.80509 -7.33843 -0.118436 0.401446 0.849035 0.343482 132 76 87
6.84823 -7.28689 -0.156515 0.088897 0.979698 0.179693 155 55 72
6.94534 -7.33514 -0.118925 0.261598 0.890776 -0.371597 147 76 89
7.13969 -7.36471 -0.142986 0.377773 0.892307 -0.247133 148 48 64
-2.91672 -8.09989 1.18064 0.852239 0.463143 -0.243282 99 107 105
-2.76648 -8.05474 1.16758 0.338584 0.379144 -0.861169 81 91 92
-2.68171 -8.11649 1.17345 0.062137 0.687414 -0.723603 106 115 114
-2.42207 -8.11022 1.11979 0.167471 0.452046 -0.876132 107 121 120
-2.28022 -8.20863 1.10301 0.179864 0.448783 -0.875353 93 110 111
-2.27972 -8.20707 1.10314 0.19406 0.44322 -0.875155 93 109 110
-2.17712 -8.19194 1.12255 0.147622 0.459735 -0.875701 122 136 136
-2.1936 -8.2306 1.11381 0.0580619 0.492445 -0.868405 122 137 137
-2.19462 -8.23586 1.11446 0.0608417 0.496201 -0.866073 123 138 137
-2.1779 -8.19514 1.12447 0.137062 0.462707 -0.875852 122 136 135
-2.0736 -8.1646 1.12388 0.142499 0.463525 -0.874551 125 139 138
-2.02757 -8.25711 1.0903 0.19324 0.571869 -0.797261 127 145 144
-1.94781 -8.21687 1.12794 0.184087 0.447487 -0.875139 96 115 117
-1.94925 -8.29319 1.07635 0.0160468 0.672553 -0.739875 107 128 131
-1.97005 -8.32928 1.06958 0.0542599 0.526414 -0.848495 119 140 141
-1.70484 -8.32053 1.08629 -0.0174539 0.514495 -0.857316 129 150 152
-1.64457 -8.3552 1.05746 0.0687537 0.490092 -0.868955 135 157 157
-1.62487 -8.36304 1.06109 0.00804198 0.528635 -0.848811 132 153 154
-1.38497 -8.33025 1.01735 0.240255 0.79763 -0.553231 139 161 163
-1.23343 -8.40827 1.00117 0.589475 0.794255 -0.147238 87 99 98
-0.317728 -8.50247 0.897432 0.00375623 0.493391 -0.869799 116 130 131
-0.178214 -8.47735 0.935454 0.00506683 0.456008 -0.889961 120 137 139
0.814846 -8.80481 0.862716 0.559786 0.522573 -0.643084 118 140 141
0.814832 -8.80436 0.86272 0.508471 0.520877 -0.68567 117 139 140
1.04375 -8.96102 0.852615 0.199868 0.537248 -0.819401 93 118 122
1.22443 -9.03517 0.793077 0.0116213 0.649424 -0.760338 85 108 111
1.98062 -9.11565 0.701451 0.352156 0.820999 0.449385 105 127 133
2.04266 -9.10247 0.663151 0.350176 0.764002 0.54192 95 119 125
2.14377 -9.09828 0.685902 -0.177006 0.846262 0.502504 85 108 113
2.73922 -7.71617 0.508286 -0.649693 0.757557 0.0632878 93 122 129
2.794 -7.7478 0.505064 -0.819389 0.572985 0.0169981 138 164 171
