ply
format ascii 1.0
element vertex 719
property float x
property float y
property float z
property float nx
property float ny
property float nz
property uchar diffuse_red
property uchar diffuse_green
property uchar diffuse_blue
end_header
2.26712 -6.12007 0.922536 -0.0857718 0.993859 0.069917 63 97 108
2.21793 -6.12953 0.951934 0.00186203 0.998847 0.0479802 91 117 125
2.31926 -6.12158 0.951537 -0.0233683 0.976669 0.213476 77 107 118
2.36954 -6.12131 0.980073 -0.117319 0.991875 0.0491893 100 127 132
2.3706 -6.12153 0.980284 -0.117868 0.992225 0.0399589 101 127 133
2.41933 -6.11549 0.952312 0.0190903 0.999419 0.028241 111 134 139
2.46744 -6.10228 0.978849 -0.105381 0.994095 0.0258757 103 129 136
2.5442 -6.1146 0.990252 -0.964542 0.261787 -0.0335605 117 146 157
2.52946 -6.09634 0.938113 -0.666263 0.727705 -0.162907 76 110 122
2.58327 -6.02583 0.961936 -0.403098 0.284207 -0.869907 79 112 125
2.57002 -5.90148 0.927356 -0.97001 0.191894 -0.149187 112 145 157
2.58347 -5.93339 0.932813 -0.724821 0.298847 -0.620746 114 148 161
2.59912 -5.94162 0.936921 -0.969131 0.190291 -0.156765 121 153 165
2.55491 -5.74621 0.926504 -0.965872 0.194823 -0.170694 155 186 199
2.568 -5.66809 0.92617 -0.970254 0.195893 -0.142247 167 196 210
2.5968 -5.58039 0.927 -0.847482 0.419273 -0.325553 178 204 218
2.62499 -5.51678 0.925249 -0.779545 0.491839 -0.387821 157 183 195
2.65693 -5.46353 0.924142 -0.703528 0.534335 -0.468545 178 203 215
2.65861 -5.50183 0.880209 -0.710061 0.53654 -0.456003 169 195 207
2.69613 -5.42099 0.924179 -0.613449 0.560586 -0.556259 178 203 215
2.69335 -5.45203 0.881149 -0.314515 0.831647 -0.457651 177 202 214
2.73424 -5.41594 0.88176 -0.612992 0.539961 -0.576787 160 185 195
2.76951 -5.37856 0.882661 -0.574865 0.510121 -0.639771 159 182 193
2.80458 -5.33488 0.882408 -0.450219 0.71517 -0.534635 182 204 215
2.84127 -5.29329 0.883427 -0.539069 0.594352 -0.596783 182 204 215
2.95003 -5.2233 0.921276 -0.397179 0.649745 -0.648135 163 186 197
2.99341 -5.22274 0.888674 -0.418266 0.629475 -0.65484 176 200 210
3.03441 -5.17736 0.898131 -0.34791 0.629937 -0.694362 155 179 188
3.06806 -5.1364 0.911088 -0.358343 0.710488 -0.605638 181 205 214
3.11341 -5.14303 0.879012 -0.270932 0.700823 -0.659881 178 202 211
3.16037 -5.10695 0.889938 -0.455204 0.654477 -0.603696 160 184 194
3.19354 -5.08111 0.896658 -0.523558 0.631616 -0.571793 150 173 183
3.23204 -5.05107 0.912147 -0.246722 0.75297 -0.610052 181 203 214
3.27528 -5.05255 0.886867 -0.159839 0.757631 -0.632808 178 199 209
3.32074 -5.02749 0.898597 -0.352649 0.73367 -0.580833 158 179 189
3.36574 -5.00057 0.910071 -0.329524 0.757805 -0.563157 155 177 187
-2.98941 -6.27674 0.546352 0.0999874 0.966246 -0.237425 119 127 125
-2.94519 -6.30492 0.579255 -0.0206122 0.99465 -0.101224 131 142 144
-2.94616 -6.30046 0.578913 -0.0203534 0.98687 -0.160231 129 140 141
-2.87878 -6.32268 0.593494 -0.106126 0.975158 0.194431 124 130 133
-2.82587 -6.32837 0.560031 -0.174036 0.856674 0.485614 125 133 134
-2.68832 -6.30662 0.597825 -0.101734 0.994812 -0.000314727 100 112 112
-2.43151 -6.27514 0.605478 -0.0935541 0.638778 -0.763682 126 137 137
-2.41282 -6.26795 0.603154 0.157592 0.954087 -0.254719 114 126 126
-2.3855 -6.28262 0.629267 0.447304 0.865827 0.224192 97 111 111
-2.32612 -6.2784 0.602122 -0.117998 0.816697 0.564874 85 103 107
-2.25403 -6.29414 0.625791 -0.233226 0.96856 -0.0865878 69 77 78
-2.26877 -6.27946 0.629125 -0.207283 0.955237 -0.211082 81 93 95
-2.01977 -6.13844 0.644838 0.00831785 0.61336 -0.789759 154 126 107
-1.90204 -6.23866 0.631384 0.24085 0.484849 -0.840781 41 18 4
-1.76897 -6.26123 0.689348 0.653459 0.52781 0.542595 95 91 90
-1.69577 -6.26269 0.691881 -0.0733318 0.813959 0.576275 110 123 125
-1.6217 -6.21613 0.663908 -0.645845 0.76227 0.0427625 113 133 137
-1.47524 -6.09085 0.660548 0.25638 0.916365 0.307482 118 133 134
-1.44199 -6.12063 0.685419 0.384016 0.922901 -0.0280388 83 102 104
-1.36965 -6.09716 0.66636 0.180953 0.98043 -0.0775384 113 132 137
-1.33076 -6.12474 0.692529 -0.124675 0.990554 0.0570911 90 114 123
-1.28078 -6.11998 0.672607 -0.149437 0.97489 -0.165099 123 143 147
-1.28657 -6.12492 0.667416 -0.144052 0.962602 -0.229448 115 136 140
-1.29908 -6.15876 0.717096 -0.24944 0.967981 -0.0281673 143 166 173
-1.21699 -6.08558 0.67646 -0.216029 0.967978 0.12787 142 160 161
-1.17733 -6.11103 0.703955 -0.138836 0.985393 0.0986188 137 159 162
-1.13399 -6.11119 0.679382 -0.104736 0.984022 0.14398 92 117 122
-1.08721 -6.11142 0.704535 0.0707411 0.988107 0.136528 67 96 103
-1.03755 -6.11285 0.727819 0.187746 0.964893 0.183665 115 137 143
-0.99697 -6.11901 0.702883 0.0238907 0.996747 0.0769748 137 154 155
-0.941182 -6.11844 0.730962 -0.146776 0.988734 0.0293641 123 141 142
-0.897713 -6.10468 0.705045 -0.174511 0.97886 0.106674 130 152 155
-0.851618 -6.09975 0.732165 -0.135916 0.990692 0.00745022 73 101 107
-0.745175 -6.09707 0.727584 0.153489 0.981661 0.113063 136 153 155
-0.701161 -6.10708 0.752375 0.320472 0.942972 0.0900113 112 125 123
-0.657215 -6.11365 0.726067 0.3035 0.950503 0.0665783 108 120 118
-0.614931 -6.1303 0.750625 0.226233 0.969553 0.0937325 102 121 124
-0.570909 -6.14056 0.775722 0.0908926 0.992777 0.0783076 102 125 129
-0.491051 -6.14161 0.780089 0.0302455 0.994457 0.100701 90 110 113
-0.446812 -6.14507 0.753816 0.0378242 0.972661 0.22913 117 132 134
-0.400503 -6.15329 0.779484 0.0372534 0.970763 0.237132 129 144 144
-0.400973 -6.15321 0.779816 0.0254365 0.968985 0.245807 129 144 144
-0.357213 -6.14521 0.79851 -0.0171008 0.976234 0.216043 119 135 135
-0.264154 -6.14408 0.799644 -0.04659 0.965892 0.25472 132 150 152
-0.218616 -6.13582 0.774813 -0.131878 0.944542 0.300747 95 115 121
-0.172105 -6.14899 0.804664 -0.118236 0.974922 0.188538 104 119 120
-0.0777311 -6.14396 0.779319 0.113665 0.96977 0.215933 114 127 128
-0.0322398 -6.14869 0.804088 0.0626572 0.983025 0.17244 122 137 138
0.0118789 -6.15617 0.829309 0.066444 0.993178 0.0958306 107 122 121
0.0585392 -6.15248 0.803026 0.0738696 0.995938 0.051491 132 147 148
0.100513 -6.16215 0.828691 0.00385613 0.989217 0.146405 131 145 145
0.146747 -6.1567 0.802585 -0.0398526 0.996504 0.0734275 117 134 134
0.240871 -6.1399 0.804531 -0.278738 0.952698 -0.121125 134 152 152
0.198046 -6.14958 0.83097 -0.237217 0.971446 -0.00462393 103 121 121
0.288423 -6.12771 0.828953 -0.289669 0.954523 -0.0705593 116 133 133
0.329127 -6.12016 0.854454 -0.152862 0.988218 -0.00762008 127 144 142
0.373959 -6.11355 0.828205 -0.228878 0.956381 -0.181521 132 148 147
0.432907 -6.13359 0.84253 0.110262 0.988081 0.107412 100 115 115
0.479358 -6.13331 0.868026 0.129114 0.991346 0.0237277 106 121 120
0.528263 -6.14161 0.839161 -0.223661 0.941792 0.251007 123 138 138
0.628203 -6.11403 0.880238 -0.264659 0.946228 -0.186033 87 108 108
0.672746 -6.1244 0.855875 -0.150122 0.987436 -0.0493252 114 132 131
0.764354 -6.08847 0.852159 -0.100378 0.990953 0.0890863 114 130 131
0.764697 -6.12861 0.893639 0.0451395 0.984695 0.168341 110 125 126
0.815931 -6.11507 0.864889 0.508033 0.85729 -0.0834029 93 113 113
0.863722 -6.12577 0.891721 -0.0182477 0.967876 0.250766 83 106 109
0.910972 -6.10231 0.865477 0.0312717 0.985147 0.168839 84 105 106
0.910971 -6.10284 0.865203 0.0367601 0.987729 0.15179 85 106 106
0.958472 -6.10414 0.892929 -0.0985185 0.958192 0.268629 115 134 135
1.04038 -6.1235 0.903418 0.0129265 0.995438 0.0945372 118 136 136
1.09038 -6.10161 0.874401 0.0238403 0.985564 0.167616 78 103 106
1.09072 -6.1266 0.926113 -0.0189953 0.983197 0.181558 95 120 125
1.13624 -6.11476 0.900289 -0.0679662 0.988349 0.136186 65 94 101
1.18205 -6.11508 0.926985 -0.117758 0.980348 0.158276 79 107 114
1.22703 -6.0926 0.901536 -0.273877 0.95814 0.0834211 127 148 149
1.26888 -6.09376 0.930547 -0.122357 0.991473 0.0448248 107 126 125
1.3142 -6.09654 0.906181 -0.0967177 0.995307 0.00308365 115 134 134
1.35838 -6.09106 0.931591 0.424938 0.901766 -0.079027 114 136 141
1.44415 -6.09021 0.933135 -0.0360723 0.996697 0.0727527 62 92 102
1.39662 -6.07597 0.904422 0.12875 0.989782 -0.0612772 69 98 104
1.48986 -6.07027 0.902172 -0.0598259 0.995978 -0.066698 102 128 134
1.53855 -6.08544 0.930933 0.00129359 0.99993 0.0117691 116 135 137
1.63627 -6.09922 0.931785 0.0807116 0.983221 0.16359 119 141 144
1.58683 -6.09831 0.960555 0.022161 0.993079 0.115337 124 144 144
1.58802 -6.0984 0.960716 0.0189631 0.991587 0.128044 124 144 144
1.68437 -6.10277 0.959555 0.112241 0.990194 0.0831738 81 108 115
1.73243 -6.10123 0.932185 -0.0156357 0.995091 0.0977207 64 94 104
1.78252 -6.10625 0.959446 -0.0159046 0.990749 0.13477 90 114 120
1.83079 -6.10795 0.987297 0.0097939 0.997223 0.0738299 117 138 141
1.92149 -6.10977 0.946416 0.151935 0.985623 0.0739103 112 133 138
1.92185 -6.10974 0.946664 0.174925 0.980007 0.0948082 112 132 137
1.96998 -6.11464 0.975438 0.177441 0.984091 0.0089044 93 117 124
1.97035 -6.11476 0.97563 0.187603 0.98215 0.0136739 93 118 125
2.0203 -6.1278 1.00427 0.153188 0.988189 0.00394046 120 141 146
2.02038 -6.1293 1.00414 0.163026 0.986234 0.0276767 120 141 147
2.0702 -6.13729 0.974545 0.192797 0.981146 0.0134979 84 108 113
2.06982 -6.13709 0.974773 0.17909 0.983796 -0.00844555 84 108 113
2.11923 -6.13641 1.00993 0.317583 0.948197 -0.00800274 123 144 147
2.16822 -6.1287 0.98023 0.0835447 0.99598 -0.0323044 112 134 137
2.16829 -6.12864 0.980208 0.0878513 0.995719 -0.0287458 112 134 137
2.26739 -6.12756 0.980269 -0.0227977 0.998122 0.0568488 110 137 146
2.21786 -6.13163 1.00899 0.0174809 0.99937 0.0308752 109 132 136
2.3187 -6.12657 1.00885 -0.0242259 0.98764 0.154857 117 142 147
2.36521 -6.12658 1.03757 -0.164617 0.985932 -0.0289706 126 149 154
2.41919 -6.11552 1.00932 -0.00994039 0.999139 0.0402749 123 145 152
2.46779 -6.10499 1.03636 -0.268771 0.959978 -0.0787706 125 149 157
2.56732 -6.1001 1.03823 -0.513739 0.854088 -0.081276 100 127 134
2.58818 -6.00805 1.00185 -0.934428 0.355323 -0.0243002 112 142 153
2.57524 -5.96848 0.997367 -0.972417 0.216694 -0.0863103 110 140 151
2.56666 -5.85397 0.994371 -0.972017 0.203803 -0.116824 114 145 156
2.57913 -5.86513 0.994771 -0.973879 0.216278 -0.069172 120 151 163
2.5502 -5.6955 0.989853 -0.970252 0.198055 -0.13923 152 182 194
2.5428 -5.68109 0.988254 -0.972234 0.191084 -0.135086 151 181 194
2.56291 -5.61664 0.989256 -0.973216 0.210071 -0.0933857 164 192 205
2.59331 -5.53715 0.975093 -0.865505 0.372078 -0.335348 169 196 209
2.62077 -5.47209 0.968205 -0.806503 0.544213 -0.231052 186 212 225
2.66211 -5.41955 0.96598 -0.639652 0.758501 -0.124582 159 185 197
2.69783 -5.37931 0.966183 -0.694615 0.58929 -0.412611 156 182 194
2.73431 -5.34022 0.966317 -0.67872 0.614479 -0.402187 176 201 213
2.7328 -5.37888 0.924585 -0.675343 0.536554 -0.505985 185 209 220
2.76584 -5.29151 0.964695 -0.6543 0.581432 -0.483559 160 185 196
2.76815 -5.33707 0.924294 -0.678407 0.579587 -0.451489 185 209 220
2.80248 -5.28899 0.923531 -0.521337 0.694194 -0.496288 163 185 196
2.8443 -5.25624 0.923372 -0.586674 0.633241 -0.504797 184 207 217
2.95025 -5.17782 0.963782 -0.440053 0.732089 -0.52 164 188 200
2.99169 -5.18007 0.930763 -0.366676 0.717471 -0.59227 175 200 210
3.02457 -5.13522 0.942429 -0.426634 0.738148 -0.52261 185 210 221
3.06792 -5.10291 0.95389 -0.331138 0.748898 -0.574021 150 175 185
3.11164 -5.07242 0.965622 -0.32583 0.770093 -0.548445 154 180 189
3.1119 -5.10632 0.922902 -0.259456 0.726944 -0.635795 157 182 191
3.15443 -5.0733 0.935009 -0.502139 0.646957 -0.573849 181 207 216
3.189 -5.04449 0.944168 -0.437886 0.725088 -0.53151 184 208 219
3.2302 -5.01698 0.956323 -0.232718 0.79242 -0.563838 147 170 182
3.27623 -5.01841 0.925078 -0.229202 0.834308 -0.501394 173 195 206
3.31943 -4.99665 0.941805 -0.370968 0.747225 -0.551396 178 200 210
-2.99763 -6.27499 0.610928 0.0735576 0.958419 -0.275722 133 140 137
-2.88879 -6.30616 0.613125 0.294664 0.942857 -0.155541 137 141 143
-2.83591 -6.31576 0.646942 0.293346 0.945075 -0.144159 137 145 144
-2.62182 -6.29126 0.631772 -0.142874 0.988685 0.0457111 131 142 143
-2.56502 -6.29123 0.667967 0.364582 0.921451 -0.134197 138 147 147
-2.49813 -6.29742 0.638463 -0.138481 0.688036 0.712341 135 146 146
-2.44076 -6.28674 0.6692 -0.0171112 0.989882 -0.14086 126 136 136
-2.37825 -6.2733 0.638394 0.103841 0.98219 -0.15659 109 122 123
-2.30543 -6.27991 0.666405 -0.272597 0.902502 -0.333436 119 129 130
-2.33256 -6.28639 0.669864 -0.213851 0.952637 -0.216217 112 122 123
-2.18674 -6.23627 0.654962 -0.406184 0.902476 0.143356 102 98 93
-2.13524 -6.23451 0.662943 -0.369803 0.872432 0.319543 160 137 124
-1.81745 -6.23399 0.688049 0.845591 0.519929 -0.121034 32 23 16
-1.58703 -6.25591 0.737987 -0.6548 0.720031 -0.229768 138 155 159
-1.49033 -6.1125 0.707581 0.224778 0.910634 0.346727 124 139 139
-1.44221 -6.11156 0.738913 0.46239 0.872496 -0.15794 126 144 146
-1.34379 -6.17103 0.7437 -0.111963 0.970026 0.215672 83 111 121
-1.25825 -6.15764 0.742739 -0.216565 0.969617 0.113766 128 147 152
-1.21756 -6.09426 0.727763 -0.168329 0.978738 -0.117206 123 142 145
-1.17608 -6.1079 0.754886 -0.0256523 0.999526 -0.017 117 140 144
-1.13126 -6.09976 0.729723 -0.00811471 0.987139 0.159656 84 114 119
-1.08714 -6.12119 0.756863 -0.0506221 0.995163 0.0841957 87 115 123
-1.03681 -6.12072 0.779814 0.244011 0.966565 0.0788074 85 106 111
-0.99165 -6.1143 0.753006 0.0218803 0.992274 0.122119 129 146 148
-0.940496 -6.11338 0.7827 -0.0453159 0.992819 0.11071 142 160 162
-0.94106 -6.11649 0.782028 -0.153701 0.986311 -0.0597295 142 160 162
-0.897426 -6.10872 0.757724 -0.234476 0.971985 0.0163137 109 131 133
-0.899603 -6.1218 0.757116 -0.233356 0.97225 -0.0166071 109 132 134
-0.851798 -6.1034 0.782925 -0.0740113 0.995211 0.0638606 120 143 147
-0.801833 -6.09739 0.758245 -0.0130578 0.99926 -0.0361799 86 111 117
-0.754169 -6.09307 0.782488 0.140627 0.985841 0.0913293 85 104 107
-0.708143 -6.10367 0.805941 0.265283 0.963972 0.0195648 120 136 134
-0.657535 -6.11842 0.777426 0.28511 0.956308 0.0647091 122 136 135
-0.615312 -6.13701 0.801997 0.265065 0.946328 0.184942 105 122 123
-0.614929 -6.13684 0.801738 0.268073 0.94527 0.186015 105 122 123
-0.536601 -6.14992 0.806112 0.141724 0.979233 0.144975 127 143 145
-0.571643 -6.14808 0.826966 0.123627 0.985861 0.113112 119 135 135
-0.491384 -6.15505 0.832269 -0.0110231 0.991411 0.130315 131 144 144
-0.446839 -6.1575 0.805974 0.0179837 0.987447 0.156923 114 130 131
-0.401227 -6.16287 0.831893 0.0805707 0.979136 0.186552 92 110 110
-0.311412 -6.15391 0.825509 -0.0243211 0.97485 0.22153 131 147 148
-0.264072 -6.15748 0.852259 -0.113275 0.953955 0.277739 106 121 120
-0.216847 -6.15078 0.827631 -0.0886388 0.977197 0.192947 114 128 128
-0.170233 -6.14849 0.850885 0.0415638 0.99691 0.0666555 125 138 138
-0.125966 -6.14915 0.825258 -0.000714839 0.996813 0.0797645 100 115 116
-0.0760816 -6.1517 0.830918 0.01244 0.993298 0.11491 111 127 128
-0.0337232 -6.1694 0.858365 -0.0028309 0.999989 -0.00373955 129 145 145
0.0112539 -6.1634 0.883016 -0.0313791 0.992224 0.120445 128 145 144
0.0575073 -6.15763 0.854134 0.127118 0.984304 0.122422 115 128 126
0.0985744 -6.16124 0.880968 -0.0429394 0.995351 0.0862168 92 107 107
0.157103 -6.16148 0.861027 -0.304436 0.946055 -0.110898 120 137 137
0.199332 -6.1427 0.882681 -0.263028 0.957499 -0.118375 133 150 150
0.28446 -6.12617 0.880629 -0.152167 0.980481 -0.124509 129 150 151
0.239681 -6.1418 0.857131 -0.281741 0.958453 -0.0446174 130 148 149
0.329908 -6.11677 0.906501 -0.113628 0.989182 0.0927767 73 97 100
0.372565 -6.11863 0.881285 -0.149453 0.981149 0.122518 88 105 105
0.418362 -6.11738 0.909319 0.0842778 0.989019 0.121402 118 133 131
0.518233 -6.12903 0.923682 0.0277946 0.998939 -0.0367181 107 128 131
0.619452 -6.10389 0.915955 -0.162954 0.986492 -0.0167287 71 98 102
0.718393 -6.14108 0.920314 -0.0721464 0.986995 0.143654 97 113 111
0.715005 -6.13788 0.923246 0.00332654 0.986706 0.16248 97 113 111
0.764691 -6.14173 0.948447 0.0634148 0.951302 0.301668 119 135 135
0.8132 -6.13587 0.91948 0.130535 0.960262 0.246692 86 108 112
0.863899 -6.15378 0.946528 0.0206736 0.938868 0.343656 61 87 93
0.911307 -6.12726 0.918639 -0.0842714 0.967211 0.239585 85 109 113
0.958628 -6.12149 0.946406 -0.10732 0.946143 0.305445 116 134 137
0.994421 -6.12298 0.929476 -0.0304635 0.968887 0.245622 94 110 110
1.04351 -6.12776 0.95262 -0.0287985 0.983505 0.178576 127 145 145
1.09035 -6.13015 0.979426 -0.0507908 0.995904 0.0747978 86 109 113
1.13625 -6.1221 0.952828 -0.0466502 0.979372 0.196606 76 104 112
1.18275 -6.11622 0.979953 -0.167207 0.980676 0.10157 97 122 126
1.22667 -6.09673 0.95426 -0.313306 0.945219 0.0916535 110 133 135
1.26951 -6.10565 0.983853 -0.125529 0.988655 -0.0824882 130 150 151
1.31381 -6.09381 0.957367 -0.10495 0.993974 -0.0316456 128 146 147
1.3421 -6.09571 0.997523 -0.0174092 0.997436 0.0694198 107 128 129
1.44417 -6.09154 0.986479 -0.0147843 0.999696 0.019705 122 145 150
1.39619 -6.07165 0.95683 0.117261 0.989501 -0.0844854 83 107 115
1.49183 -6.10461 1.01578 -0.0866968 0.993981 0.0669759 117 137 139
1.49052 -6.09203 0.960092 0.000277281 0.998146 0.0608591 81 105 111
1.53799 -6.08993 0.986038 0.366128 0.924861 0.102868 113 135 137
1.63581 -6.10085 0.988242 0.0674994 0.994011 0.0859476 92 114 117
1.58837 -6.10571 1.0164 -0.0288862 0.992843 0.11588 109 129 131
1.6829 -6.10991 1.01469 0.118682 0.986903 0.10926 117 137 140
1.73278 -6.10876 0.987091 -0.0256448 0.98334 0.17996 118 142 148
1.77893 -6.09568 1.01501 -0.242328 0.917656 0.314936 120 141 144
1.8701 -6.10291 1.03383 0.04081 0.998911 -0.0226351 92 113 117
1.92299 -6.11509 1.00475 0.170375 0.974958 0.142933 104 125 128
1.92269 -6.1155 1.00443 0.169838 0.97415 0.14895 104 125 128
1.97209 -6.12415 1.03356 0.21465 0.974886 0.0593589 108 127 129
1.97182 -6.12419 1.03322 0.208854 0.975838 0.0641945 108 127 129
2.02042 -6.13086 1.06177 0.208467 0.976321 0.0577757 103 121 123
2.02047 -6.13024 1.06214 0.221454 0.974623 0.0326712 103 121 124
2.06957 -6.13666 1.03287 0.145195 0.989262 0.0166891 123 142 145
2.16798 -6.12547 1.03673 0.0220459 0.999551 -0.020315 104 126 130
2.27045 -6.13225 1.03831 -0.0393401 0.999099 -0.0159108 103 125 128
2.26771 -6.13582 1.03819 0.0388438 0.997065 0.0659672 104 126 129
2.21746 -6.13431 1.06702 0.0382989 0.998998 0.0231778 121 143 147
2.3185 -6.13292 1.06664 -0.14133 0.985291 -0.0960571 119 141 145
2.36772 -6.12863 1.09482 -0.216865 0.969633 -0.113055 105 131 135
2.36634 -6.12903 1.09436 -0.212297 0.971424 -0.106144 105 130 135
2.41248 -6.1175 1.06525 -0.190947 0.98137 -0.0212488 99 124 131
2.41372 -6.11639 1.06554 -0.207459 0.977309 -0.0427644 99 124 131
2.46817 -6.10438 1.09169 -0.163948 0.981352 0.100348 106 133 141
2.52408 -6.11668 1.06793 -0.324933 0.940452 -0.0998466 129 154 162
2.56887 -6.09768 1.09355 -0.449639 0.848845 -0.278006 127 155 164
2.60519 -6.06757 1.05763 -0.970154 0.198383 -0.139445 125 151 160
2.60091 -5.98501 1.07282 -0.969396 0.209178 -0.12851 111 139 149
2.58098 -5.8326 1.06458 -0.977361 0.207409 -0.0417892 131 163 173
2.53711 -5.73576 1.05554 -0.979831 0.164525 -0.113418 126 159 169
2.59434 -5.48569 1.01505 -0.849699 0.374347 -0.371316 153 180 192
2.6334 -5.42953 1.00874 -0.736708 0.573865 -0.357686 164 190 203
2.66017 -5.37431 1.00716 -0.632554 0.659717 -0.405769 189 214 227
2.69521 -5.33319 1.00596 -0.688606 0.578823 -0.43679 170 194 206
2.73794 -5.30578 1.00812 -0.678607 0.62518 -0.385542 164 187 198
2.79735 -5.25929 0.96614 -0.594331 0.616286 -0.516683 174 198 210
2.7982 -5.25892 0.966747 -0.586529 0.619228 -0.522054 175 199 210
2.7647 -5.26329 1.00673 -0.638177 0.617127 -0.460308 187 210 221
2.76491 -5.26266 1.00727 -0.625972 0.623682 -0.468166 187 210 221
2.80444 -5.23155 1.00845 -0.644008 0.621971 -0.445427 188 210 221
2.8039 -5.23178 1.00774 -0.643329 0.631749 -0.43246 188 210 221
2.88318 -5.21587 0.971173 -0.559915 0.695009 -0.451062 158 182 193
2.85092 -5.21447 1.01081 -0.584797 0.661712 -0.469202 169 192 203
2.89248 -5.1887 1.01116 -0.546968 0.71479 -0.435777 183 207 218
2.9513 -5.14856 1.00524 -0.482302 0.722039 -0.496029 182 207 217
2.99033 -5.14351 0.973096 -0.447951 0.726541 -0.521034 151 177 188
3.0263 -5.10248 0.98355 -0.450362 0.770245 -0.451549 148 174 185
3.06692 -5.07324 0.997357 -0.350915 0.810827 -0.468421 185 210 220
3.1067 -5.04327 1.00998 -0.37961 0.782853 -0.492988 181 206 217
3.10627 -5.04748 1.00931 -0.373835 0.755877 -0.537492 181 206 217
3.14791 -5.0432 0.979388 -0.453787 0.713258 -0.534173 151 177 187
3.14739 -5.04517 0.977538 -0.438734 0.725966 -0.529609 152 177 188
3.18866 -5.01541 0.987276 -0.405687 0.769187 -0.493731 151 175 186
3.23028 -4.98946 0.999712 -0.316675 0.801121 -0.50786 183 207 219
3.27332 -4.98888 0.970912 -0.283447 0.802384 -0.525202 151 174 186
3.31638 -4.96539 0.985712 -0.357105 0.763904 -0.53752 168 190 201
-2.88294 -6.28536 0.675849 0.076501 0.924243 0.374063 134 143 141
-2.68148 -6.2974 0.66638 -0.112453 0.990698 -0.0766277 136 144 144
-2.62956 -6.29867 0.701427 -0.0611146 0.996947 0.0485972 138 146 145
-2.5034 -6.29934 0.702274 -0.211413 0.959599 -0.185672 119 127 128
-2.38731 -6.28337 0.699231 0.0545586 0.983785 -0.170854 132 141 142
-1.97186 -6.13294 0.740614 -0.281402 0.801081 -0.528283 158 165 163
-1.89405 -6.15896 0.736897 0.218092 0.688666 -0.691503 75 71 61
-1.65072 -6.23486 0.766153 -0.616116 0.787653 0.00205773 105 119 121
-1.48519 -6.08864 0.761691 0.0850577 0.896802 -0.43418 130 146 148
-1.45439 -6.13615 0.791554 0.362163 0.898431 0.248314 87 106 108
-1.34424 -6.17321 0.79653 -0.0457799 0.994498 0.0942172 130 151 158
-1.30242 -6.16798 0.769451 -0.299335 0.954056 0.0132358 107 130 137
-1.21837 -6.10177 0.779557 -0.307076 0.908309 -0.284042 147 166 170
-1.16828 -6.11611 0.803119 -0.172794 0.984497 -0.0301341 120 141 145
-1.12932 -6.12012 0.781522 -0.0891309 0.989662 0.112361 120 145 149
-1.07735 -6.13094 0.807442 -0.556475 0.824951 0.0989475 134 153 156
-1.03464 -6.15266 0.833883 -0.554696 0.770548 0.313956 138 154 155
-0.993857 -6.14247 0.806103 -0.0594666 0.980788 0.185792 130 147 150
-0.942414 -6.1219 0.833155 -0.0787815 0.983115 0.165159 109 128 130
-0.897185 -6.11419 0.808003 -0.0398277 0.998773 0.029417 126 146 148
-0.850611 -6.10553 0.834602 -0.11388 0.985166 0.128376 117 134 134
-0.801116 -6.09366 0.808512 0.0914901 0.994907 -0.0422948 134 151 152
-0.755437 -6.09478 0.833417 0.157625 0.987246 -0.0223741 136 152 151
-0.709058 -6.10748 0.857545 0.265505 0.963571 0.032222 111 126 125
-0.666306 -6.11883 0.831505 0.232813 0.971274 0.0492498 90 104 104
-0.607699 -6.12904 0.852325 0.140902 0.986788 0.079978 131 146 147
-0.58101 -6.14506 0.833007 0.121943 0.988997 0.0837595 123 138 139
-0.535853 -6.15315 0.858432 0.0177682 0.987662 0.155591 105 120 119
-0.567467 -6.14721 0.87871 0.122667 0.988112 0.0926647 130 146 147
-0.489986 -6.15485 0.884628 0.0446401 0.985442 0.164044 112 128 129
-0.445709 -6.15985 0.858174 0.157154 0.977381 0.141525 127 141 141
-0.384555 -6.16411 0.87657 -0.028318 0.993883 0.106749 118 135 135
-0.350769 -6.15917 0.855875 0.000870358 0.982318 0.18722 117 134 135
-0.305179 -6.16441 0.878433 -0.0386894 0.988868 0.14368 113 130 131
-0.262712 -6.16489 0.905006 -0.117173 0.985963 0.118947 104 124 126
-0.214817 -6.15349 0.879884 -0.100486 0.983973 0.147308 118 133 132
-0.17054 -6.152 0.902532 -0.0561922 0.998028 0.027963 88 104 105
-0.126729 -6.15339 0.87748 0.00545012 0.999877 0.0147215 127 142 142
-0.0818654 -6.15806 0.904866 0.0318063 0.997538 -0.0624961 128 143 142
-0.0394446 -6.16541 0.93123 0.0746223 0.991534 0.106264 103 121 123
0.155796 -6.15648 0.912496 -0.304517 0.936225 -0.175363 135 151 151
0.198206 -6.13725 0.934418 -0.317032 0.921244 -0.22539 130 146 147
0.239135 -6.13742 0.907454 -0.289004 0.941481 -0.173463 97 118 120
0.283053 -6.12504 0.931329 -0.0845309 0.990628 -0.10729 64 92 98
0.329889 -6.12188 0.960189 -0.0620258 0.994064 0.0893895 60 89 96
0.375247 -6.11814 0.93437 0.055558 0.996034 0.0694934 119 139 142
0.422415 -6.10216 0.957341 0.0232068 0.98188 0.188079 105 120 118
0.471754 -6.14439 0.953229 0.0130873 0.99418 0.106937 120 134 132
0.517974 -6.13293 0.97946 0.0124258 0.997244 0.0731411 87 108 111
0.51785 -6.14239 0.976001 0.0160513 0.999054 0.0404246 89 110 113
0.570659 -6.14725 0.947093 0.493918 0.851344 0.176798 58 87 95
0.618497 -6.13012 0.972046 -0.0895208 0.984092 0.153456 71 96 103
0.715122 -6.1519 0.977323 -0.0184446 0.955796 0.293453 113 129 129
0.669279 -6.12531 0.947299 0.0154859 0.986225 0.16468 126 145 148
0.764744 -6.15698 1.00263 -0.0286167 0.961745 0.272447 108 126 127
0.81305 -6.14521 0.974255 0.073196 0.970165 0.231132 74 95 98
0.863276 -6.14582 1.00117 0.0220274 0.973773 0.226454 127 147 150
0.913807 -6.14202 0.973518 -0.0634134 0.96318 0.261273 78 101 105
0.962052 -6.14038 1.00134 -0.101111 0.975923 0.193265 106 126 127
0.99506 -6.12359 0.977397 -0.0320634 0.991734 0.124237 122 139 140
1.04289 -6.13368 1.00525 -0.0580375 0.986072 0.155863 118 136 138
1.09065 -6.13922 1.03197 -0.0341003 0.996936 0.0703977 126 145 145
1.13629 -6.1334 1.00631 -0.0745764 0.975755 0.20577 129 150 153
1.18286 -6.12416 1.03375 -0.28948 0.956291 0.0413421 125 144 144
1.22766 -6.10352 1.00595 -0.195441 0.969947 0.144933 112 132 134
1.29756 -6.11324 1.02342 -0.131171 0.987367 0.0888799 106 126 127
1.34237 -6.09708 1.04735 -0.092563 0.990661 0.100111 124 144 144
1.38859 -6.09847 1.02427 0.0478082 0.998776 0.0126716 117 137 137
1.44431 -6.10544 1.0433 0.109286 0.993578 0.0293079 94 112 111
1.49102 -6.1015 1.06952 0.0160994 0.99822 0.0574172 113 132 132
1.49089 -6.10275 1.0706 0.0131032 0.996973 0.0766359 113 131 131
1.53889 -6.10201 1.04217 0.0284254 0.996396 0.0799153 111 131 132
1.53845 -6.10178 1.04319 0.017188 0.997275 0.0717404 111 131 132
1.63652 -6.11046 1.04394 0.0907048 0.995835 0.00920743 124 145 147
1.58709 -6.10879 1.07032 0.0147252 0.997946 0.0623497 111 133 134
1.58637 -6.10606 1.07096 0.00801004 0.997727 0.0669102 112 133 135
1.68444 -6.11517 1.07064 0.0585134 0.998092 0.0197003 122 142 143
1.73239 -6.1166 1.04281 0.00878705 0.999452 0.0319018 101 119 121
1.78028 -6.11863 1.07038 -0.00670653 0.999756 0.0210348 115 134 136
1.83122 -6.10413 1.09543 0.0004403 0.998071 0.0620793 114 134 136
1.87492 -6.09862 1.09099 0.0928 0.993684 0.0630839 122 144 147
1.92269 -6.11914 1.06334 0.186852 0.975141 -0.119102 116 137 140
1.92326 -6.1198 1.06368 0.180626 0.975681 -0.124184 116 137 140
1.97163 -6.12716 1.09192 0.207927 0.977079 0.0456451 114 136 138
2.0207 -6.14044 1.12283 0.183434 0.982676 -0.0264615 92 117 122
2.06954 -6.13988 1.09108 0.173289 0.977612 0.119357 101 121 124
2.11808 -6.12231 1.0998 0.0613318 0.997951 0.0182147 119 139 142
2.27104 -6.13615 1.09468 -0.0267238 0.999404 -0.0218475 127 151 156
2.32004 -6.13061 1.12251 -0.150323 0.985639 -0.0769356 87 115 122
2.31799 -6.12053 1.12054 -0.115995 0.985862 -0.120919 88 115 122
2.36811 -6.12921 1.15088 -0.154754 0.98342 -0.0945376 117 144 150
2.41458 -6.11981 1.12165 -0.0710385 0.997237 -0.021713 127 150 155
2.41522 -6.12004 1.12182 -0.0680498 0.99749 -0.0195537 127 150 155
2.46601 -6.12063 1.14956 -0.313955 0.949411 0.00719927 122 147 154
2.51604 -6.09554 1.12037 -0.0869517 0.956779 -0.277511 87 118 128
2.58612 -6.01933 1.14157 -0.749019 0.662484 -0.00925912 84 120 132
2.57378 -5.88144 1.13426 -0.974252 0.21656 -0.0627351 113 145 156
2.57378 -5.88144 1.13426 -0.974252 0.21656 -0.0627351 113 145 156
2.57378 -5.88144 1.13426 -0.974252 0.21656 -0.0627351 113 145 156
2.54092 -5.63928 1.05307 -0.973023 0.196305 -0.121202 155 184 196
2.5539 -5.56046 1.05293 -0.952074 0.209389 -0.22296 173 200 212
2.58368 -5.51414 1.05561 -0.867585 0.337311 -0.365402 186 212 224
2.60424 -5.44115 1.05239 -0.823722 0.415134 -0.386193 171 196 209
2.63567 -5.3918 1.05077 -0.704394 0.612315 -0.359025 171 196 209
2.67158 -5.35232 1.04982 -0.625668 0.696047 -0.35222 167 192 204
2.707 -5.31406 1.05029 -0.705456 0.593211 -0.387856 191 215 226
2.73892 -5.26675 1.04879 -0.679357 0.614711 -0.400755 176 199 210
2.73817 -5.26792 1.04912 -0.674231 0.617328 -0.405363 176 199 211
2.775 -5.22845 1.04751 -0.578465 0.722175 -0.379266 151 174 186
2.77442 -5.22991 1.048 -0.585249 0.712173 -0.387677 151 174 186
2.81096 -5.19393 1.04659 -0.550912 0.775165 -0.309216 174 198 209
2.86032 -5.18329 1.05063 -0.572896 0.701026 -0.424679 185 210 221
2.89924 -5.15312 1.05081 -0.593955 0.70001 -0.396488 149 175 187
2.95106 -5.12078 1.0485 -0.49938 0.733442 -0.461174 156 183 194
2.98953 -5.11335 1.01618 -0.449148 0.760653 -0.468693 167 194 204
3.02741 -5.07978 1.02934 -0.479957 0.73449 -0.479756 181 207 218
3.06673 -5.04657 1.04069 -0.388372 0.791874 -0.471277 144 170 181
3.1064 -5.02056 1.05231 -0.384543 0.77098 -0.507659 162 188 199
3.14743 -5.014 1.02245 -0.423639 0.759969 -0.492926 167 191 202
3.18601 -4.99161 1.03431 -0.382955 0.813466 -0.437742 182 207 218
3.22481 -4.96207 1.04801 -0.352468 0.814118 -0.461495 147 171 183
3.26573 -4.96317 1.01933 -0.292014 0.820309 -0.491753 179 202 214
3.30577 -4.93433 1.03442 -0.413735 0.744421 -0.524082 162 185 195
-2.93829 -6.28277 0.711287 0.346035 0.844329 -0.409108 91 102 102
-2.8351 -6.3291 0.706348 -0.0183874 0.944848 0.326992 113 122 122
-2.68866 -6.30169 0.736546 -0.110336 0.950684 -0.289874 93 104 106
-2.56654 -6.28499 0.73271 -0.0683181 0.994351 0.0812298 92 103 104
-2.43872 -6.27354 0.73142 0.124432 0.973035 0.194218 125 134 135
-1.97691 -6.05651 0.767873 -0.247891 0.714372 -0.654387 168 178 180
-1.92416 -6.10987 0.759091 -0.0590776 0.793544 -0.605638 146 154 150
-1.89484 -6.12405 0.784401 0.053665 0.884869 -0.462739 137 142 137
-1.81708 -6.14712 0.786755 0.171933 0.494925 -0.851756 37 33 24
-1.62383 -6.16212 0.830409 -0.488894 0.871782 -0.0312803 75 79 75
-1.60631 -6.21547 0.796442 -0.624835 0.773783 -0.104125 96 113 115
-1.60621 -6.2152 0.796448 -0.615316 0.787771 -0.0283427 94 111 113
-1.60621 -6.2152 0.796448 -0.615316 0.787771 -0.0283427 94 111 113
-1.49982 -6.12706 0.823267 0.307091 0.935803 0.173112 116 134 136
-1.4521 -6.14462 0.845731 0.280951 0.954455 -0.100411 121 136 138
-1.25762 -6.12645 0.850824 0.279065 0.908137 0.312106 127 148 152
-1.21688 -6.13662 0.829147 -0.238219 0.966776 0.0927109 118 139 144
-1.17192 -6.12992 0.857266 -0.232382 0.965049 0.121154 137 156 159
-1.11893 -6.10717 0.832185 -0.15711 0.970869 0.180914 118 136 137
-1.07602 -6.12539 0.858354 0.0995436 0.991552 0.0831568 115 132 133
-1.03176 -6.12962 0.883823 0.0755999 0.996482 0.0361569 107 125 125
-0.989211 -6.13462 0.858447 0.0604872 0.996092 0.0643639 128 145 146
-0.938212 -6.11965 0.884721 -0.224718 0.973849 0.0334624 137 155 157
-0.938714 -6.11885 0.88504 -0.22423 0.973595 0.0428256 137 155 157
-0.895644 -6.11511 0.859699 -0.0483474 0.998423 0.0285191 140 158 160
-0.897121 -6.11276 0.859962 -0.236419 0.966568 0.0992562 139 158 159
-0.898779 -6.11444 0.860689 -0.241693 0.967107 0.0793016 139 157 159
-0.849185 -6.10343 0.886193 -0.0740677 0.996242 0.0448999 134 151 152
-0.850725 -6.10595 0.887114 -0.0610245 0.989323 0.132347 133 151 152
-0.801907 -6.09609 0.860181 0.15121 0.986324 0.0655727 113 129 127
-0.755382 -6.0993 0.88505 0.114213 0.989456 0.0890597 107 122 121
-0.710151 -6.11122 0.909554 0.299132 0.95394 0.0227627 110 124 123
-0.666631 -6.1222 0.883159 0.319557 0.946649 0.041699 116 131 130
-0.613245 -6.14649 0.905416 0.365755 0.930711 -0.000313729 84 102 103
-0.564841 -6.14846 0.929845 0.130827 0.989708 0.0579919 74 96 102
-0.52277 -6.15505 0.904055 0.0685797 0.985975 0.152152 120 139 141
-0.477853 -6.16443 0.930048 0.121362 0.989898 0.0732985 76 97 100
-0.432344 -6.16578 0.903466 0.0351945 0.983986 0.174735 109 124 125
-0.383549 -6.16532 0.928631 -0.0490031 0.991053 0.12415 116 130 129
-0.308332 -6.17321 0.930684 0.0892503 0.996004 0.00321621 90 110 112
-0.262517 -6.17006 0.957543 -0.114421 0.993203 -0.0213508 61 87 93
-0.216495 -6.15913 0.931519 -0.0885562 0.988899 0.119317 70 93 97
-0.170251 -6.15475 0.954557 -0.0860916 0.992284 0.0892228 135 153 157
-0.082573 -6.16142 0.956649 0.0107802 0.996857 0.0784843 108 122 121
-0.125494 -6.15227 0.929276 -0.0459418 0.995328 0.0849185 129 143 143
-0.0395539 -6.1716 0.98314 0.0553738 0.987956 0.14449 109 128 130
0.0954552 -6.16645 0.989472 -0.203597 0.963216 -0.175394 100 120 125
0.154166 -6.14978 0.963663 -0.30488 0.934711 -0.182655 120 136 136
0.195393 -6.13485 0.986207 -0.322909 0.939175 -0.116965 132 151 151
0.240578 -6.12274 0.958087 -0.251166 0.944654 -0.211055 113 136 140
0.28202 -6.12205 0.983254 -0.0876817 0.994782 -0.0521603 77 105 111
0.330731 -6.11877 1.01229 0.132703 0.980761 0.143171 113 133 137
0.376265 -6.11144 0.985096 -0.0419256 0.978138 0.203687 79 99 103
0.424038 -6.11685 1.01194 -0.0237898 0.995255 0.0943479 124 141 140
0.471193 -6.14768 1.00606 -0.0194526 0.994049 0.107181 123 139 139
0.517665 -6.16335 1.03299 0.10703 0.967635 0.228532 108 126 127
0.517134 -6.16334 1.03299 0.10905 0.966903 0.230664 108 126 127
0.565972 -6.15472 1.00454 -0.0257526 0.969705 0.242918 112 135 139
0.565478 -6.15475 1.00449 -0.0211415 0.966173 0.257026 112 135 139
0.666636 -6.14016 1.00108 -0.0709378 0.967212 0.24386 88 106 109
0.617778 -6.15735 1.02856 0.484379 0.857935 0.171244 114 132 133
0.719494 -6.16705 1.02919 0.012998 0.963024 0.269103 106 124 125
0.674223 -6.16067 1.05268 -0.0904798 0.949214 0.301341 122 139 139
0.764833 -6.16905 1.05661 -0.0940391 0.995496 0.0120246 115 134 134
0.868719 -6.15189 1.05499 0.0393734 0.998832 0.0280026 95 112 111
0.913649 -6.15153 1.02758 -0.100418 0.99175 0.0796715 129 147 148
0.914069 -6.1696 1.08089 -0.0547589 0.992649 -0.107933 114 131 131
0.959664 -6.1541 1.05454 -0.142238 0.989626 -0.0202011 121 139 141
0.996232 -6.13892 1.03118 -0.0513079 0.997368 0.0512391 99 119 121
1.04511 -6.14844 1.05838 -0.119812 0.992696 0.0141347 116 136 137
1.09009 -6.13344 1.08459 -0.0481884 0.989572 -0.135737 113 134 136
1.13901 -6.14543 1.06418 -0.152791 0.988155 0.0143289 111 130 130
1.18286 -6.12653 1.08759 -0.162179 0.960354 -0.226755 121 141 141
1.22906 -6.13047 1.0616 -0.265488 0.964096 0.00597221 131 150 150
1.34389 -6.12035 1.10595 -0.172756 0.982216 0.0735305 94 115 117
1.2964 -6.09763 1.07394 -0.0014531 0.999949 0.0100425 114 134 134
1.39812 -6.11592 1.07358 0.00920922 0.996034 0.0884922 123 143 143
1.44326 -6.09798 1.0961 0.196698 0.980185 0.0233883 119 139 141
1.44262 -6.09677 1.09671 0.185202 0.982384 0.0249496 119 139 140
1.48814 -6.07787 1.1193 0.0415211 0.999133 -0.00304408 81 103 106
1.49025 -6.10096 1.12426 0.0319525 0.997914 0.0560973 81 103 106
1.53615 -6.10397 1.10059 0.156994 0.976077 0.150424 106 126 126
1.63397 -6.10621 1.09824 -0.00251575 0.997817 0.0659893 91 112 114
1.63452 -6.10721 1.09726 0.00618816 0.997732 0.06703 91 112 114
1.58305 -6.10333 1.12838 -0.107938 0.991575 0.0716187 118 136 135
1.68477 -6.11612 1.1251 0.190891 0.967738 0.16445 79 105 109
1.68447 -6.11646 1.12618 0.183941 0.969473 0.162134 78 104 108
1.73238 -6.11828 1.09794 -0.0297718 0.999316 -0.0219402 121 142 144
1.73377 -6.12557 1.15266 -0.0507463 0.998637 0.0121757 66 95 102
1.78134 -6.12363 1.1253 -0.0436826 0.998657 0.0278784 86 110 113
1.83203 -6.12591 1.15294 -0.073812 0.994191 0.0783329 116 138 139
1.87517 -6.10096 1.14678 0.0451496 0.996941 0.0637933 108 128 128
1.92158 -6.11731 1.12168 -0.0188505 0.996799 0.0776967 91 113 116
1.97225 -6.13578 1.15184 0.184861 0.976896 0.107237 68 95 103
2.0209 -6.13983 1.18103 0.0981598 0.995084 0.0131471 60 91 99
2.06942 -6.1452 1.15204 0.123327 0.992141 -0.0211197 105 130 135
2.11802 -6.1242 1.15767 0.0813989 0.996242 -0.0295859 107 127 131
2.20256 -6.15998 1.19168 0.241055 0.947871 0.208406 114 137 142
2.27112 -6.13612 1.15176 -0.0793549 0.988285 -0.130364 70 101 111
2.27051 -6.12798 1.20474 -0.0392044 0.995147 -0.0902503 84 114 123
2.31999 -6.12543 1.17778 -0.147522 0.988376 -0.036754 86 117 127
2.36837 -6.12714 1.20672 -0.145282 0.98936 -0.00781704 112 138 145
2.41536 -6.11626 1.17731 -0.0352023 0.997343 -0.0637719 96 119 124
2.46713 -6.11469 1.20526 -0.255288 0.96685 -0.00537923 120 145 152
2.50669 -6.0808 1.1733 -0.45999 0.878572 -0.128528 87 120 131
2.57276 -6.06437 1.19968 -0.739105 0.620175 0.262882 76 114 128
2.58167 -5.96126 1.20831 -0.973544 0.205526 -0.0998576 89 122 133
2.54734 -5.71769 1.12351 -0.974754 0.221618 0.0272118 146 177 188
2.54733 -5.71801 1.12358 -0.984011 0.177809 0.0103159 143 174 185
2.52678 -5.57783 1.11412 -0.977696 0.188542 -0.0925356 165 193 205
2.54246 -5.51186 1.10413 -0.832225 0.504198 -0.230622 152 180 191
2.57087 -5.45626 1.10088 -0.848747 0.43958 -0.293935 164 190 202
2.60573 -5.40136 1.094 -0.793154 0.549932 -0.26169 169 195 207
2.64316 -5.35504 1.08991 -0.749725 0.530743 -0.395252 165 191 204
2.67496 -5.30851 1.08844 -0.701722 0.632257 -0.328385 155 181 193
2.70851 -5.26552 1.08708 -0.648025 0.660564 -0.379103 161 185 197
2.74658 -5.23476 1.08821 -0.677123 0.656556 -0.332324 174 197 209
2.78405 -5.20073 1.08788 -0.598631 0.708712 -0.37332 175 199 211
2.82973 -5.18218 1.09016 -0.542401 0.724948 -0.424562 152 178 189
2.86969 -5.15465 1.09066 -0.58111 0.670457 -0.461301 154 180 192
2.90851 -5.12311 1.09059 -0.574372 0.731506 -0.367418 182 209 220
2.95036 -5.09369 1.09065 -0.50759 0.701984 -0.499571 154 181 192
2.98691 -5.07847 1.05923 -0.410593 0.803943 -0.430219 180 207 218
3.02541 -5.04967 1.07258 -0.423701 0.803967 -0.41727 149 176 187
3.0669 -5.0214 1.08357 -0.436314 0.760597 -0.480753 173 199 211
3.10501 -4.992 1.09605 -0.371481 0.830221 -0.415615 150 176 187
3.10677 -4.99717 1.09548 -0.399531 0.798137 -0.450945 150 176 187
3.145 -4.99141 1.06722 -0.459841 0.790321 -0.404893 180 205 217
3.14732 -4.99153 1.06424 -0.459457 0.794114 -0.397847 182 207 219
3.18561 -4.96625 1.07795 -0.408237 0.814411 -0.412404 151 175 187
3.22475 -4.93949 1.09213 -0.401074 0.808852 -0.429997 174 196 208
3.30569 -4.91033 1.07762 -0.391895 0.825842 -0.405467 184 207 218
-3.00582 -6.27263 0.731967 -0.150807 0.965566 -0.211991 131 135 132
-2.86225 -6.27484 0.743483 0.828532 0.556869 0.0585734 86 100 104
-2.62773 -6.28499 0.768483 -0.119539 0.962419 -0.243844 70 89 93
-2.57326 -6.27705 0.801357 0.118576 0.988343 -0.0954847 92 108 114
-2.51067 -6.30046 0.775385 -0.25999 0.872941 -0.412769 126 135 136
-2.04226 -5.91993 0.788731 0.556207 0.687437 -0.466973 165 174 178
-1.95917 -5.90733 0.78528 -0.0928666 0.749676 0.655257 173 183 187
-1.93155 -6.03633 0.786444 -0.234499 0.698573 -0.676022 155 168 168
-1.88851 -5.83985 0.797248 -0.0457779 0.53967 -0.840631 150 165 165
-1.89205 -6.10064 0.834035 -0.0708285 0.926554 -0.369433 143 150 149
-1.85665 -6.12701 0.810796 -0.0436709 0.908867 -0.414793 128 132 128
-1.82545 -6.13102 0.834463 -0.0311672 0.91114 -0.410916 108 110 105
-1.55128 -6.0932 0.849267 -0.385538 0.83872 -0.38459 106 115 116
-1.51244 -6.09839 0.877686 -0.00591429 0.998503 0.0543703 106 120 122
-1.41295 -6.14296 0.873312 0.133093 0.984163 0.117091 120 132 134
-1.36857 -6.15231 0.896313 0.327963 0.944688 0.00194834 128 143 147
-1.37259 -6.16138 0.899687 0.202289 0.976906 0.0688049 126 141 146
-1.34987 -6.15835 0.905252 0.0239291 0.996903 0.0749193 126 142 147
-1.37088 -6.13939 0.894647 0.0563751 0.992527 0.108225 126 140 144
-1.36723 -6.1585 0.895569 0.117959 0.985708 0.120271 130 144 148
-1.32052 -6.14044 0.867788 0.17108 0.975432 0.138792 126 142 146
-1.30293 -6.14636 0.878617 -0.166136 0.986069 -0.00822511 124 142 145
-1.26328 -6.15988 0.907885 -0.328205 0.94448 -0.0154597 120 139 142
-1.2832 -6.16446 0.896257 -0.302534 0.949417 -0.0841431 113 133 136
-1.20362 -6.10362 0.881049 -0.252539 0.946498 0.20091 136 154 158
-1.16327 -6.11785 0.909242 -0.232645 0.972494 0.0114908 93 113 117
-1.17092 -6.13292 0.910493 -0.23989 0.966651 0.089654 95 115 118
-1.11937 -6.12145 0.883778 0.0438944 0.996997 0.0638038 132 151 153
-1.07793 -6.13108 0.910025 0.0546454 0.997263 0.0498007 116 138 140
-0.986802 -6.13293 0.909181 -0.118501 0.990892 -0.063964 114 132 134
-0.937989 -6.12263 0.937201 -0.18899 0.972613 0.135304 123 140 141
-0.938568 -6.1226 0.937624 -0.18132 0.974449 0.132558 122 139 140
-0.898462 -6.11908 0.91292 -0.254802 0.964921 0.0632725 106 127 129
-0.899235 -6.11948 0.913517 -0.253189 0.964554 0.0743693 107 127 130
-0.850449 -6.11226 0.938726 -0.0773807 0.986883 0.141684 79 104 109
-0.804871 -6.10729 0.912689 0.00921725 0.994303 0.106188 116 136 137
-0.753355 -6.10185 0.936657 0.223621 0.965746 0.131635 86 106 110
-0.709986 -6.11641 0.962242 0.246113 0.962808 0.111486 119 132 132
-0.709885 -6.11603 0.962135 0.2418 0.963574 0.114269 119 132 132
-0.666088 -6.1252 0.934893 0.313196 0.949688 0.00124972 108 120 117
-0.611523 -6.14235 0.957468 0.334887 0.942244 -0.00509763 123 140 142
-0.566124 -6.15624 0.982226 0.166822 0.983208 0.0739792 67 92 99
-0.521162 -6.15913 0.955906 0.0964664 0.991199 0.0906629 56 82 90
-0.520895 -6.15769 0.955605 0.1783 0.97771 0.110868 55 81 88
-0.477289 -6.16891 0.98196 0.103386 0.991629 0.0773515 93 114 120
-0.433364 -6.17226 0.955618 0.0413453 0.996966 0.0659501 128 144 145
-0.385418 -6.17052 0.980685 0.000381187 0.99226 0.124177 99 113 112
-0.35068 -6.17001 1.0069 -0.0542884 0.99754 0.0443425 126 143 143
-0.307651 -6.17151 0.981654 -0.0757148 0.996818 0.0249401 104 125 128
-0.261366 -6.16781 1.00735 -0.0438913 0.998102 -0.0432075 104 127 134
-0.215656 -6.15912 0.980454 -0.0465433 0.994174 0.0972165 71 96 104
-0.170018 -6.1583 1.00661 -0.074707 0.996959 0.022158 86 105 110
-0.126398 -6.16054 0.981696 -0.0757883 0.996637 0.0311718 112 126 126
-0.082469 -6.16247 1.0084 -0.0356049 0.999159 0.0203138 132 146 145
-0.0389111 -6.16742 1.03516 0.0135753 0.99955 0.0267302 99 117 118
0.0120315 -6.15919 1.04073 -0.0552065 0.993864 -0.0958457 132 150 152
0.0572964 -6.1525 1.01388 -0.137415 0.978203 -0.155677 117 138 142
0.0986559 -6.14695 1.03888 -0.204993 0.964562 -0.166124 120 138 141
0.141917 -6.13989 1.01326 -0.301322 0.931147 -0.205356 129 147 148
0.185392 -6.13248 1.04141 -0.346692 0.923781 -0.162585 127 146 147
0.239401 -6.12102 1.00997 -0.23943 0.957939 -0.158197 87 110 112
0.28106 -6.12014 1.03586 0.106848 0.993983 0.0241084 117 136 137
0.377925 -6.11832 1.03632 -0.0846321 0.975769 0.201774 112 130 130
0.470944 -6.16074 1.05983 0.00925246 0.991372 0.130751 104 123 122
0.518285 -6.17523 1.08745 -0.170603 0.960543 0.219664 115 132 132
0.567332 -6.17352 1.06139 0.00649269 0.987005 0.16056 93 108 107
0.673333 -6.18269 1.10981 -0.0618006 0.997262 -0.0406002 103 120 121
0.765096 -6.15964 1.10768 -0.218105 0.968836 -0.117422 115 134 134
0.868876 -6.15309 1.1065 -0.0106782 0.971189 -0.23807 126 146 148
0.914203 -6.16842 1.13255 -0.0301773 0.999545 0.000462323 79 101 104
0.958445 -6.15257 1.10609 -0.150766 0.981619 -0.117019 99 118 120
1.04519 -6.15074 1.11093 -0.105722 0.983059 -0.149723 112 132 134
1.09368 -6.13862 1.14287 -0.0748796 0.996892 -0.0244885 82 106 112
1.09467 -6.13815 1.14084 -0.0894849 0.995694 0.024218 80 105 110
1.13813 -6.13302 1.11644 -0.142637 0.986738 -0.0774825 113 137 141
1.13971 -6.14394 1.1149 -0.0954613 0.990173 -0.102201 118 141 144
1.18467 -6.13884 1.13873 -0.162889 0.986611 -0.00809735 81 107 111
1.18305 -6.12995 1.142 -0.22674 0.973559 -0.0278021 80 107 112
1.22772 -6.12093 1.11131 -0.226115 0.9739 -0.0197781 94 116 117
1.38904 -6.09805 1.12909 -0.033217 0.99538 0.0900847 74 98 103
1.34334 -6.11841 1.15902 -0.0135391 0.983802 0.178745 125 145 147
1.43709 -6.10724 1.15768 -0.00459759 0.999837 0.0174719 60 88 96
1.53349 -6.1101 1.15628 -0.0707959 0.997382 0.0147484 121 140 141
1.63387 -6.11546 1.15748 0.0354837 0.982731 0.181605 122 143 146
1.63411 -6.11458 1.15653 0.0363817 0.982887 0.180581 122 143 146
1.58256 -6.10683 1.18324 -0.101145 0.981123 0.164826 103 119 120
1.58213 -6.10647 1.18394 -0.0746886 0.977491 0.197314 103 120 121
1.68297 -6.11679 1.18503 0.0830654 0.987864 0.131244 70 97 105
1.7344 -6.13003 1.20765 -0.0552314 0.995838 0.0724936 77 104 113
1.78248 -6.13095 1.18039 -0.0797287 0.986616 0.142241 112 137 143
1.83095 -6.128 1.20892 -0.0570045 0.998163 0.020548 117 138 140
1.8663 -6.1108 1.20803 0.0856683 0.990204 0.110259 121 140 141
1.92162 -6.1305 1.18259 0.0466987 0.990505 0.129302 121 143 147
1.96964 -6.1253 1.20924 0.0988359 0.991214 -0.0878942 76 102 109
2.01951 -6.13491 1.23784 -0.0457406 0.998856 0.0139608 103 127 133
2.07618 -6.13675 1.20305 -0.0280447 0.999396 -0.020503 106 131 136
2.14804 -6.12731 1.22083 -0.0037531 0.999827 0.0181943 123 143 147
2.27037 -6.12466 1.26091 -0.0251858 0.992625 -0.118582 119 142 147
2.22168 -6.1358 1.2341 0.0923577 0.993595 -0.0651034 90 114 120
2.31967 -6.12812 1.23388 -0.0936355 0.995411 -0.0197285 93 120 128
2.36827 -6.1255 1.26283 -0.140874 0.989205 -0.0403424 108 134 139
2.416 -6.11266 1.23354 -0.0152321 0.999746 0.0166074 125 149 154
2.55002 -6.06498 1.25079 -0.184724 0.951744 0.245073 124 152 162
2.50526 -6.07623 1.22822 -0.70975 0.674303 0.203888 95 124 134
2.58821 -5.85104 1.20366 -0.994543 0.0758607 -0.0716167 121 152 163
2.58086 -5.83398 1.20148 -0.994614 0.0639972 -0.0815313 123 152 164
2.54178 -5.649 1.18655 -0.976485 0.213825 0.0274985 150 178 190
2.55472 -5.68141 1.19282 -0.996379 0.0683438 -0.0505823 144 173 186
2.55472 -5.68141 1.19282 -0.996379 0.0683438 -0.0505823 144 173 186
2.52608 -5.5571 1.15881 -0.915144 0.37801 -0.140071 153 182 193
2.55081 -5.46889 1.14085 -0.809611 0.494055 -0.316923 171 197 210
2.57781 -5.41221 1.13926 -0.806484 0.499842 -0.315819 150 176 188
2.61015 -5.36897 1.13969 -0.782867 0.558206 -0.274819 177 203 216
2.64771 -5.32106 1.13182 -0.755549 0.547171 -0.360208 186 213 225
2.68159 -5.27876 1.12962 -0.662141 0.636138 -0.396104 167 192 204
2.68167 -5.27871 1.12998 -0.66704 0.632701 -0.393378 167 192 204
2.71682 -5.23953 1.12919 -0.636585 0.663929 -0.392374 181 204 216
2.71383 -5.24055 1.12949 -0.643439 0.663619 -0.381571 179 203 215
2.75401 -5.20349 1.12788 -0.668828 0.590352 -0.451833 176 199 211
2.7926 -5.16982 1.12706 -0.567866 0.723649 -0.39225 185 210 221
2.83662 -5.15464 1.12997 -0.546016 0.729734 -0.411528 168 195 206
2.87787 -5.1193 1.12992 -0.603006 0.632752 -0.485806 173 200 212
2.91672 -5.0882 1.12987 -0.554984 0.700321 -0.448936 172 199 210
2.98686 -5.05401 1.10341 -0.394242 0.810417 -0.433357 146 172 184
2.94945 -5.06624 1.13406 -0.483587 0.747485 -0.455423 180 207 218
2.98564 -5.02431 1.1455 -0.358992 0.764129 -0.53594 182 208 220
3.0257 -5.02665 1.11601 -0.438469 0.783408 -0.440474 183 208 220
3.06636 -4.99558 1.12644 -0.437913 0.789349 -0.430302 176 202 214
3.10872 -4.96792 1.1409 -0.305552 0.863283 -0.401722 177 204 215
3.14484 -4.96787 1.11118 -0.412234 0.825057 -0.386449 146 171 183
3.18363 -4.94229 1.12606 -0.431474 0.7812 -0.451173 189 211 224
3.3059 -4.8896 1.12289 -0.316728 0.881532 -0.350122 145 169 180
3.34437 -4.85985 1.13916 -0.239428 0.856642 -0.456989 183 208 219
-2.94336 -6.26215 0.771432 0.024798 0.932062 -0.361449 133 138 139
-2.86014 -6.20514 0.800488 0.870211 0.490469 -0.0466147 143 152 155
-2.68096 -6.27071 0.803271 0.047373 0.949941 -0.308817 106 120 123
-2.6175 -6.25303 0.833705 0.692665 0.529758 -0.489461 91 100 104
-2.48755 -6.27357 0.821711 0.225165 0.358557 -0.905946 99 105 106
-2.09372 -5.91178 0.809881 0.108643 0.87425 -0.473164 162 171 178
-1.8283 -5.73145 0.820524 0.216318 0.372418 -0.902503 151 164 165
-1.77496 -6.10975 0.857512 -0.0220224 0.860263 -0.509375 77 77 70
-1.76089 -6.00249 0.853644 0.426062 0.490306 -0.76031 124 127 122
-1.73238 -6.08152 0.879152 -0.352217 0.894811 -0.274329 68 62 53
-1.56388 -6.09056 0.918849 -0.0452089 0.855255 -0.516232 91 83 78
-1.47361 -6.12042 0.933629 0.36162 0.917816 -0.163846 109 121 120
-1.4541 -6.13326 0.899191 0.217439 0.967544 0.128761 96 111 112
-1.36612 -6.14887 0.95112 0.383374 0.922177 0.0511331 60 83 90
-1.32546 -6.16979 0.923749 -0.0575303 0.982345 0.178011 93 113 118
-1.3232 -6.15107 0.922244 -0.0217309 0.959986 0.279205 93 113 118
-1.27847 -6.14738 0.950722 -0.3085 0.951115 -0.0144298 121 142 147
-1.20554 -6.1165 0.934319 -0.174654 0.979672 0.0986881 127 144 145
-1.21445 -6.1434 0.935791 -0.279535 0.954943 0.0997204 125 142 143
-1.16915 -6.13624 0.962139 -0.169949 0.982376 0.0778113 126 146 149
-1.12192 -6.12908 0.93569 -0.00661495 0.991619 0.129025 76 101 106
-1.07772 -6.13322 0.961278 0.0393344 0.997661 0.0559026 63 91 98
-1.03265 -6.13329 0.935249 0.170981 0.979998 0.101831 84 107 111
-0.982918 -6.1345 0.959378 -0.0691567 0.996798 0.0401541 126 142 145
-0.936832 -6.12518 0.989606 -0.166122 0.985594 0.0317441 115 132 134
