ply
format ascii 1.0
element vertex 718
property float x
property float y
property float z
property float nx
property float ny
property float nz
property uchar diffuse_red
property uchar diffuse_green
property uchar diffuse_blue
end_header
-1.92449 -4.50177 0.676432 0.807272 0.528782 -0.26211 132 132 124
0.254859 -4.67664 0.730424 -0.162877 0.35454 -0.920745 164 171 169
0.300054 -4.47686 0.687107 -0.773606 0.194368 -0.603121 208 217 218
0.319671 -4.34844 0.677646 -0.762844 0.185194 -0.619494 214 225 227
-2.75897 -4.1331 0.637122 0.463694 0.87102 0.162208 135 135 127
-2.74071 -4.12976 0.624128 0.0197622 0.990731 -0.134395 136 137 128
-2.70236 -4.11373 0.620549 -0.14215 0.829376 0.540304 140 140 131
-2.72293 -4.13032 0.635562 0.408165 0.884573 0.225679 135 136 127
-2.67332 -4.11969 0.630902 0.176593 0.97964 -0.0954985 142 142 133
-2.55255 -4.13894 0.636447 0.550944 0.823139 -0.13749 158 158 150
-2.52351 -4.14244 0.641707 -0.433349 0.838329 -0.330777 162 163 157
-2.49512 -4.14659 0.641997 0.169649 0.921776 -0.348637 170 170 167
-2.47738 -4.15225 0.63219 0.238482 0.940154 -0.243385 179 180 179
-2.44943 -4.15444 0.638669 0.318619 0.946096 0.0581765 185 186 186
-2.45848 -4.16079 0.646899 0.544356 0.836478 0.0630963 184 185 184
-2.44037 -4.16463 0.642742 0.572884 0.800463 0.176247 183 184 185
-2.41079 -4.17367 0.632355 -0.295795 0.713047 -0.635665 186 187 187
-2.4118 -4.17471 0.632041 -0.32473 0.69424 -0.642325 185 186 186
-2.39157 -4.17306 0.643989 0.0750918 0.929863 -0.36016 193 194 195
-2.39218 -4.17334 0.64354 0.00745595 0.905218 -0.424881 193 194 195
-2.38212 -4.17505 0.643306 -0.0519141 0.756721 -0.651674 196 197 199
-2.30741 -4.19319 0.653212 0.143423 0.946954 -0.287591 201 204 207
-2.30457 -4.19876 0.644722 0.551272 0.828028 -0.102318 202 204 208
-2.272 -4.18288 0.642838 0.316432 0.944501 0.0882572 206 210 214
-2.25226 -4.18197 0.633545 0.00853901 0.951779 0.306665 210 214 219
-2.21128 -4.19519 0.645478 0.38418 0.918897 0.0896332 213 217 222
-2.17478 -4.19134 0.646244 0.394786 0.913847 -0.0950166 201 203 206
-2.15623 -4.20034 0.637374 0.43961 0.847876 -0.296392 186 186 186
-2.15811 -4.19418 0.656622 0.436786 0.895709 -0.083202 194 195 197
-2.14699 -4.20982 0.653663 0.468156 0.868651 -0.162098 187 187 187
-2.12435 -4.22371 0.655855 0.575696 0.80555 -0.140225 183 183 183
-2.10694 -4.23648 0.647191 0.497502 0.842517 -0.206534 182 182 181
-2.08735 -4.24912 0.646589 0.549291 0.824778 -0.134242 178 178 176
-2.07724 -4.24814 0.664326 0.51014 0.829983 -0.225577 167 167 164
-2.05881 -4.25551 0.661779 0.487208 0.840546 -0.236877 157 157 152
-2.06129 -4.25562 0.657407 0.528185 0.840074 -0.123678 160 160 155
-2.05895 -4.25466 0.662167 0.531464 0.834244 -0.146913 157 157 152
-2.04512 -4.26647 0.654921 0.543404 0.834172 -0.0941814 151 150 143
-2.0242 -4.26951 0.655855 0.596682 0.79615 -0.100581 144 143 133
-2.02004 -4.24805 0.664231 0.601661 0.777099 -0.184723 143 141 133
-2.00126 -4.26883 0.650716 0.71963 0.686274 -0.10564 141 140 130
0.272858 -4.56071 0.726704 -0.805102 0.194186 -0.560449 171 180 181
0.279076 -4.51758 0.721729 -0.803142 0.191184 -0.56428 162 171 172
0.309555 -4.30242 0.697396 -0.817247 0.219112 -0.533008 183 194 198
0.313483 -4.30666 0.689566 -0.78707 0.2297 -0.572502 173 185 188
-2.74029 -4.13218 0.647929 0.724637 0.67533 0.137226 135 136 128
-2.71852 -4.1113 0.649102 -0.316723 0.549966 -0.772803 137 138 129
-2.67636 -4.10119 0.638832 0.632937 0.75432 0.174335 137 137 129
-2.67044 -4.09846 0.654791 0.56424 0.785029 0.255661 138 138 131
-2.65602 -4.13407 0.644928 0.637752 0.747978 0.183851 141 142 134
-2.64461 -4.1384 0.649961 0.82021 0.528924 -0.217934 142 143 135
-2.62194 -4.14077 0.648131 0.2487 0.737743 -0.627602 146 147 138
-2.56328 -4.14388 0.662222 0.541031 0.826043 -0.157922 153 154 146
-2.5429 -4.13619 0.652601 0.633466 0.772957 0.0354677 159 159 151
-2.52513 -4.12091 0.659295 0.526472 0.836098 -0.154168 160 160 155
-2.51178 -4.13452 0.653158 -0.0349534 0.901422 -0.431528 164 164 160
-2.49428 -4.14517 0.665282 0.49936 0.866097 -0.022732 169 170 166
-2.49536 -4.14409 0.663578 0.329945 0.943742 -0.0220732 169 169 166
-2.47732 -4.14737 0.653021 0.138825 0.962161 -0.234463 177 177 176
-2.45057 -4.16053 0.663253 0.528852 0.839029 0.127853 180 181 180
-2.43205 -4.16417 0.65902 0.376292 0.926456 -0.00914378 179 180 180
-2.39204 -4.16759 0.663762 0.301348 0.946659 -0.114131 194 195 196
-2.39265 -4.1679 0.663257 0.28352 0.952632 -0.110043 194 195 196
-2.40949 -4.16935 0.654667 -0.116082 0.959733 -0.255807 186 187 187
-2.3818 -4.1689 0.664123 0.407448 0.907604 -0.101193 197 198 199
-2.37481 -4.1721 0.652766 0.228417 0.9267 -0.298417 198 199 201
-2.3643 -4.17375 0.653351 0.246267 0.864026 -0.439103 198 199 201
-2.33202 -4.18303 0.659537 0.359983 0.925042 -0.121286 200 202 206
-2.28937 -4.18164 0.656106 0.372408 0.927659 0.0275914 202 206 209
-2.30718 -4.18329 0.670794 0.695371 0.71637 -0.05721 200 204 206
-2.27353 -4.17672 0.660803 0.33725 0.932191 0.131466 206 210 213
-2.25534 -4.18424 0.670731 -0.547345 0.793781 0.265189 208 212 216
-2.22849 -4.17475 0.654385 0.803989 0.378585 -0.458558 208 212 218
-2.19173 -4.18215 0.655259 0.335593 0.940274 -0.0571134 209 213 219
-2.20939 -4.20177 0.666632 0.851074 0.405857 -0.333096 209 213 220
-2.17593 -4.18325 0.665822 0.501165 0.862106 -0.0748849 209 212 217
-2.13414 -4.21111 0.673127 0.582495 0.76381 -0.278018 185 185 186
-2.09586 -4.24122 0.666794 0.585553 0.799631 -0.133108 174 174 172
-2.08475 -4.23827 0.683968 0.499755 0.83889 -0.215657 168 168 165
-2.05835 -4.25121 0.685018 0.502302 0.833259 -0.231024 155 155 149
-2.03597 -4.26377 0.67191 0.498559 0.83867 -0.219254 146 145 137
-2.04162 -4.2604 0.674932 0.497645 0.834577 -0.236288 148 147 139
-2.04415 -4.26264 0.688657 0.443827 0.873382 -0.200554 148 148 140
-2.01874 -4.26969 0.685282 0.575352 0.791241 -0.207143 143 141 133
-2.02519 -4.26269 0.686853 0.539875 0.822409 -0.179384 143 142 134
-1.99258 -4.32448 0.681129 0.324771 0.780355 0.534387 140 139 129
-1.96992 -4.35 0.690216 0.757838 0.583938 0.291029 139 137 128
-1.4257 -4.81844 0.762175 -0.669093 0.468851 -0.576622 95 96 89
0.262557 -4.53011 0.748649 -0.836797 0.353883 -0.417777 204 214 216
0.255313 -4.57145 0.75296 -0.87959 0.234708 -0.413804 168 178 179
0.267385 -4.48459 0.742578 -0.871895 0.183719 -0.453923 176 187 189
0.266554 -4.45872 0.737334 -0.826333 0.272854 -0.492671 170 181 183
0.291255 -4.36748 0.723689 -0.890993 0.172862 -0.419822 167 179 182
0.292541 -4.31819 0.723677 -0.879061 0.169208 -0.445669 222 233 235
0.318943 -4.25332 0.709841 -0.797888 0.404373 -0.447053 229 239 241
0.323087 -4.21411 0.708151 -0.865222 0.159584 -0.475314 233 241 245
-2.72225 -4.12893 0.672651 0.379478 0.924603 -0.0332422 141 141 133
-2.68765 -4.10243 0.662094 -0.131263 0.761217 0.635073 140 140 132
-2.64816 -4.12127 0.668822 0.269983 0.745068 0.609904 139 139 131
-2.63814 -4.15885 0.672174 0.615131 0.738756 -0.275416 140 140 132
-2.61411 -4.14387 0.678622 -0.026513 0.576673 -0.816545 140 140 133
-2.53205 -4.12993 0.668678 0.366633 0.761678 -0.534254 158 159 153
-2.51764 -4.14283 0.67534 -0.0222161 0.811863 -0.583425 161 161 158
-2.47719 -4.1489 0.674303 0.723753 0.687625 0.0579122 172 172 170
-2.47441 -4.15138 0.688044 0.687827 0.715407 0.122828 168 169 167
-2.47721 -4.14308 0.674085 0.182665 0.974106 -0.13323 171 172 170
-2.45713 -4.16029 0.670007 0.644971 0.740052 0.190621 178 179 178
-2.44336 -4.15989 0.679008 0.454308 0.889016 -0.0570529 175 176 175
-2.42604 -4.17006 0.691631 0.442925 0.896337 -0.0199149 175 176 175
-2.41106 -4.16577 0.673944 0.080136 0.991987 -0.0976688 182 183 183
-2.41082 -4.1661 0.67466 -0.0391816 0.972411 -0.229958 182 183 183
-2.40766 -4.16599 0.684708 0.031447 0.992381 -0.119127 183 183 184
-2.39173 -4.16532 0.685636 0.573624 0.817344 0.0538988 192 193 194
-2.38772 -4.1608 0.688374 0.328185 0.944527 -0.0127538 192 193 195
-2.3706 -4.16401 0.676249 0.208366 0.972447 -0.104547 194 196 198
-2.35338 -4.16252 0.685234 0.301546 0.945771 0.120777 190 192 194
-2.33462 -4.16979 0.674956 0.413547 0.908325 0.0626493 197 200 203
-2.31862 -4.1722 0.681721 0.600932 0.794353 0.0887984 200 203 207
-2.24201 -4.20506 0.692406 0.860635 0.416169 -0.293447 204 208 213
-2.24032 -4.1869 0.694142 0.589788 0.735947 0.332464 204 208 214
-2.22376 -4.21225 0.683457 0.849639 0.409444 -0.33237 205 209 214
-2.22167 -4.20109 0.687558 0.63158 0.727585 0.267818 203 206 212
-2.20175 -4.19912 0.696573 0.558779 0.754619 0.343971 203 207 213
-2.17802 -4.19566 0.687365 0.0504872 0.998154 -0.0337625 210 213 219
-2.15877 -4.1906 0.697501 -0.138506 0.989307 0.0456837 205 208 213
-2.15812 -4.19255 0.678777 -0.00322012 0.998709 0.0506971 201 203 207
-2.13976 -4.2066 0.697542 0.630105 0.753069 -0.189354 192 194 197
-2.12217 -4.21594 0.69427 0.635541 0.75106 -0.178876 181 182 183
-2.10336 -4.22791 0.685514 0.846401 0.524196 -0.0939348 171 171 170
-2.10275 -4.23143 0.695004 0.58223 0.796148 -0.164792 175 175 174
-2.06556 -4.24268 0.705284 0.488459 0.849518 -0.199315 157 157 152
-2.04514 -4.25689 0.706342 0.604896 0.785642 -0.129871 147 147 140
-2.03539 -4.26444 0.710903 0.214432 0.95117 -0.222024 144 144 136
-2.01831 -4.28959 0.715344 0.255716 0.775687 0.576992 141 140 131
-1.99264 -4.34059 0.71829 0.630446 0.755493 -0.178236 140 138 130
-1.96909 -4.40166 0.727359 0.844276 0.471141 -0.255392 136 136 127
0.236209 -4.58258 0.780563 -0.877848 0.225204 -0.42269 209 220 222
0.231527 -4.62713 0.784069 -0.844225 0.196335 -0.498736 185 195 196
0.251339 -4.49786 0.769759 -0.971105 0.225933 -0.0768696 214 225 228
0.276644 -4.379 0.752057 -0.948558 0.18327 -0.258166 212 225 227
0.274316 -4.41698 0.75113 -0.900258 0.198037 -0.387707 174 186 188
0.279264 -4.33382 0.747765 -0.936901 0.223975 -0.268426 179 190 192
0.300682 -4.28275 0.722308 -0.819274 0.246418 -0.517754 228 237 240
0.311798 -4.25251 0.723279 -0.830202 0.252784 -0.496854 215 225 228
0.331676 -4.18204 0.709436 -0.819274 0.158727 -0.550995 195 205 210
-2.75323 -4.12596 0.698707 0.403351 0.911754 0.07754 135 136 127
-2.7207 -4.11513 0.681752 0.0154397 0.985315 -0.170045 141 141 132
-2.65538 -4.1315 0.6976 0.80635 0.504512 -0.308655 143 143 135
-2.58973 -4.12147 0.69434 0.437241 0.889098 0.135374 140 141 134
-2.56823 -4.12435 0.684736 0.444422 0.883455 -0.148315 143 144 138
-2.55231 -4.12453 0.695482 0.486018 0.851836 -0.195349 144 144 138
-2.53561 -4.14737 0.693238 0.401388 0.840945 -0.362904 153 154 149
-2.54058 -4.13226 0.704138 0.251881 0.923086 -0.290633 146 146 140
-2.52193 -4.14252 0.695727 0.0202105 0.863537 -0.50388 156 156 151
-2.49485 -4.15312 0.691229 0.561915 0.822901 -0.0841772 164 165 161
-2.48326 -4.1472 0.708478 0.385715 0.91975 -0.0726893 162 163 160
-2.44365 -4.15653 0.70003 0.665504 0.740765 0.0914962 172 173 172
-2.42528 -4.17076 0.698756 0.101523 0.994832 0.0014804 174 176 175
-2.41078 -4.16584 0.696815 -0.0639878 0.994932 -0.0775659 179 180 181
-2.41744 -4.16291 0.695833 -0.303127 0.853376 -0.424104 176 178 178
-2.40803 -4.16365 0.705163 0.0432913 0.996545 -0.0708738 179 180 181
-2.37923 -4.17415 0.711523 0.646041 0.744962 0.166323 186 187 188
-2.35228 -4.16397 0.709142 0.318743 0.946758 0.0453034 184 186 188
-2.33503 -4.16899 0.69607 0.428589 0.899348 0.0865181 193 195 198
-2.31832 -4.1733 0.704082 0.326234 0.94495 -0.0253123 197 200 204
-2.30278 -4.18851 0.713543 0.0527032 0.946284 -0.319011 202 206 210
-2.28364 -4.18672 0.699669 0.481264 0.759812 -0.437116 205 209 213
-2.26667 -4.18994 0.714508 -0.274111 0.961444 0.0220972 203 207 212
-2.24268 -4.17985 0.705295 0.119741 0.976209 0.18077 202 205 210
-2.22164 -4.18842 0.702929 0.212303 0.969553 0.122038 200 203 208
-2.22375 -4.20108 0.702156 0.223652 0.919023 -0.324618 201 204 209
-2.20178 -4.19618 0.715525 0.0631589 0.972196 0.225489 195 199 203
-2.17969 -4.18709 0.705068 0.244147 0.965578 0.089726 203 206 211
-2.1293 -4.20445 0.715316 0.51712 0.839126 -0.168689 190 192 194
-2.1008 -4.21924 0.722839 0.576239 0.769986 -0.273988 177 178 177
-2.11038 -4.22135 0.715011 0.571647 0.797855 -0.191436 182 182 182
-2.08273 -4.23171 0.714847 0.414272 0.885743 -0.209377 166 166 163
-2.08529 -4.23772 0.708521 0.478463 0.832377 -0.27968 169 169 167
-2.0654 -4.23809 0.72807 0.567678 0.798385 -0.200804 150 150 144
-2.05371 -4.2444 0.725483 0.59803 0.79076 -0.130607 147 147 139
-2.04725 -4.25326 0.720532 0.617065 0.774645 -0.138406 146 146 138
-1.99383 -4.29542 0.735611 0.83239 0.533812 0.148899 142 141 131
-1.99947 -4.32633 0.738207 0.411877 0.298043 -0.86112 140 140 131
-0.956829 -4.83817 0.833759 0.556215 0.703276 0.44275 71 82 87
-0.954658 -4.83335 0.831675 -0.610979 0.487986 -0.623357 76 84 90
0.217592 -4.59545 0.808933 -0.939906 0.326557 -0.0996908 187 197 199
0.225101 -4.55638 0.807602 -0.885053 0.19303 -0.42358 173 183 186
0.244303 -4.50757 0.781193 -0.957776 0.239904 -0.158463 190 201 204
0.259867 -4.42966 0.7798 -0.921808 0.26144 -0.286216 205 219 221
0.265672 -4.38845 0.77683 -0.934955 0.190333 -0.299388 222 236 239
0.30358 -4.23432 0.748887 -0.866668 0.381296 -0.321715 173 185 187
0.304963 -4.19034 0.742477 -0.80073 0.21828 -0.55784 218 228 230
0.318069 -4.15878 0.733669 -0.823819 0.184402 -0.53602 216 227 229
0.344855 -4.12082 0.71973 -0.86918 0.23922 -0.432783 211 222 225
-2.72064 -4.11867 0.70449 0.446027 0.888178 0.110455 140 140 131
-2.62408 -4.09916 0.715334 0.710621 0.6937 0.117464 145 145 136
-2.58538 -4.10723 0.708228 0.699988 0.702813 0.126771 143 143 136
-2.56938 -4.10937 0.702934 0.716029 0.694681 0.0687132 141 142 135
-2.55261 -4.11708 0.716092 0.576928 0.814296 0.0638468 142 142 135
-2.52207 -4.13253 0.715143 0.0337304 0.862585 -0.504786 148 149 143
-2.52016 -4.12721 0.715698 0.106129 0.905053 -0.411845 148 149 143
-2.50329 -4.14495 0.71085 0.304112 0.929512 -0.208622 157 157 153
-2.50243 -4.12776 0.726169 0.438119 0.892456 -0.107578 149 150 145
-2.48387 -4.14107 0.727809 0.366778 0.543608 -0.75496 156 156 152
-2.48478 -4.13386 0.716286 0.280883 0.947457 -0.153066 158 159 155
-2.46788 -4.14022 0.713235 0.730076 0.392107 -0.559679 164 165 163
-2.45359 -4.13199 0.722738 0.2547 0.493173 -0.83181 164 165 163
-2.42736 -4.148 0.713522 -0.217166 0.45932 -0.861316 172 173 172
-2.43352 -4.14375 0.713784 -0.308473 0.545146 -0.779525 171 172 170
-2.39801 -4.1603 0.712651 0.641425 0.758324 0.116266 181 182 183
-2.40051 -4.16168 0.730563 0.673332 0.729387 0.120906 175 176 176
-2.39029 -4.16894 0.733586 0.63488 0.751006 0.181434 177 178 178
-2.35208 -4.16613 0.731449 0.327452 0.943835 -0.0441677 179 181 182
-2.33544 -4.16884 0.717404 0.310965 0.945606 0.0955514 187 189 192
-2.33465 -4.16901 0.71903 0.321918 0.944059 0.0715604 187 190 192
-2.3351 -4.16905 0.719219 0.280321 0.9599 0.00356582 187 189 192
-2.32234 -4.18541 0.723991 0.759689 0.648844 -0.0432887 195 198 202
-2.30275 -4.18317 0.734629 0.0662445 0.987549 -0.142682 201 204 209
-2.28407 -4.18541 0.724703 -0.178568 0.966327 -0.185271 203 208 212
-2.26584 -4.18646 0.736629 -0.14945 0.988631 -0.0165527 187 191 194
-2.26201 -4.18231 0.717919 -0.070191 0.996638 0.0422494 199 203 207
-2.24274 -4.17863 0.72882 -0.283688 0.957831 -0.0456135 176 179 182
-2.22373 -4.18485 0.719299 -0.132733 0.88564 -0.444999 190 193 197
-2.22378 -4.18012 0.736894 -0.137015 0.966098 0.218817 171 174 176
-2.22371 -4.17704 0.737596 -0.192886 0.959839 -0.203723 169 172 174
-2.2048 -4.18616 0.730927 -0.0243009 0.999563 0.0168104 184 187 191
-2.20182 -4.18741 0.731657 -0.0828863 0.927258 0.365133 184 187 191
-2.18213 -4.19488 0.721645 0.239038 0.936561 0.256348 195 198 203
-2.18374 -4.19217 0.720321 0.293605 0.937672 0.185924 195 198 203
-2.16197 -4.19611 0.730277 0.122892 0.952031 0.28024 197 199 205
-2.16448 -4.19466 0.729737 0.153064 0.970924 0.184058 197 200 205
-2.14074 -4.20514 0.740553 0.188952 0.910211 0.368529 190 192 196
-2.10709 -4.20956 0.743257 0.449719 0.738134 0.502903 181 183 184
-2.08373 -4.22222 0.734438 0.553482 0.807036 -0.205793 164 164 161
-2.0881 -4.22278 0.74288 0.532759 0.751451 -0.389217 169 170 168
-2.07274 -4.22741 0.747791 0.549591 0.810425 -0.202881 156 157 152
-2.05292 -4.24375 0.749111 0.617716 0.760895 -0.198661 148 148 140
-2.0362 -4.25783 0.740835 0.613345 0.772906 -0.162556 145 145 136
0.193666 -4.63687 0.834985 -0.955176 0.292558 0.0452571 207 217 219
0.228876 -4.52285 0.81075 -0.89847 0.188319 -0.396596 174 186 188
0.235209 -4.48305 0.808932 -0.904137 0.220352 -0.366033 193 205 207
0.265192 -4.34582 0.775788 -0.905971 0.171977 -0.386835 219 232 235
0.270562 -4.30625 0.77347 -0.933957 0.230058 -0.27349 170 182 186
0.284489 -4.23582 0.771548 -0.858317 0.178627 -0.481024 228 239 241
0.290411 -4.2123 0.771276 -0.823962 0.161204 -0.54323 195 205 207
0.311244 -4.1422 0.759814 -0.831777 0.250764 -0.495243 232 242 244
0.336884 -4.09989 0.742127 -0.756609 0.161507 -0.633607 230 239 241
-2.63557 -4.09401 0.739486 0.0936867 0.994192 -0.0529615 143 143 134
-2.63503 -4.09031 0.736943 0.711369 0.693217 0.115773 143 143 134
-2.639 -4.11173 0.725582 0.710764 0.69287 0.121431 143 143 134
-2.639 -4.11173 0.725582 0.710764 0.69287 0.121431 143 143 134
-2.61777 -4.11468 0.740177 0.712664 0.692702 0.110791 145 145 136
-2.57816 -4.11201 0.728563 0.721538 0.672801 0.163466 144 145 137
-2.54409 -4.12277 0.735549 0.605923 0.789174 0.100309 143 143 136
-2.50283 -4.12603 0.744425 0.656142 0.71419 0.243743 144 144 139
-2.48515 -4.12902 0.735465 0.111865 0.920568 -0.374219 151 151 147
-2.46167 -4.13508 0.743002 0.358376 0.535351 -0.764831 154 155 151
-2.42644 -4.1318 0.731004 -0.188008 0.533245 -0.824805 169 170 168
-2.39799 -4.15522 0.753114 0.747284 0.592512 -0.300827 168 170 168
-2.38101 -4.17834 0.753826 0.822966 0.566242 0.0457924 172 174 173
-2.36308 -4.18328 0.745045 0.484305 0.873571 -0.0481854 176 178 178
-2.32249 -4.18854 0.747744 0.0860043 0.988112 -0.127425 193 195 200
-2.3027 -4.18484 0.758324 -0.0467071 0.99864 -0.0231788 191 194 199
-2.28351 -4.18296 0.746947 -0.151271 0.986376 -0.0646457 193 197 201
-2.2641 -4.18423 0.757992 -0.241901 0.968606 0.0573321 168 171 173
-2.24432 -4.1826 0.746666 0.0282406 0.981924 0.187159 159 162 162
-2.24147 -4.17484 0.747787 -0.195428 0.961311 -0.194135 156 160 159
-2.20479 -4.19064 0.7541 -0.111882 0.957982 0.264107 168 171 172
-2.18646 -4.19766 0.744066 0.261301 0.963192 0.0631109 182 184 189
-2.16451 -4.20293 0.751916 0.202148 0.884712 0.420025 180 182 186
-2.14084 -4.21311 0.761954 0.159369 0.854355 0.494651 175 177 181
-2.08859 -4.22263 0.759317 0.501012 0.844443 -0.189483 173 174 174
-2.07148 -4.22637 0.754757 0.619345 0.751981 -0.22569 159 160 156
-2.05946 -4.2338 0.769991 0.646153 0.713948 -0.26975 158 158 154
-2.05975 -4.23474 0.769734 0.585772 0.756141 -0.291757 158 158 154
-2.04376 -4.24672 0.760945 0.597703 0.796456 -0.0917064 149 149 141
-2.04049 -4.25002 0.770481 0.613009 0.779362 0.129675 151 151 144
-2.02516 -4.26064 0.760448 0.585366 0.798928 0.138058 148 148 137
-2.02424 -4.24798 0.76731 0.725776 0.687593 0.0215706 150 149 140
-2.00451 -4.27931 0.761825 0.835199 0.541816 0.0942168 148 147 135
-2.00459 -4.27579 0.773091 0.834022 0.541896 -0.103715 151 151 140
-1.98486 -4.32195 0.766448 0.839568 0.516481 -0.168443 146 146 135
-1.88346 -4.55995 0.827138 0.838559 0.531124 -0.12135 49 48 42
0.156561 -4.77301 0.887223 -0.730154 0.486991 -0.479286 175 181 182
0.217893 -4.49475 0.83694 -0.967671 0.234007 -0.0940879 196 210 213
0.253979 -4.31714 0.800311 -0.894573 0.169382 -0.413581 223 236 240
0.265455 -4.28849 0.802635 -0.907891 0.226503 -0.352746 225 237 241
0.273522 -4.25269 0.800232 -0.89267 0.328917 -0.308144 228 239 242
0.296219 -4.15395 0.783081 -0.871123 0.1842 -0.455209 201 211 215
0.319942 -4.11184 0.766686 -0.880674 0.143837 -0.451359 188 198 201
0.322323 -4.1135 0.760255 -0.870129 0.154832 -0.467871 203 212 215
-2.73683 -4.11389 0.743863 0.427149 0.897 -0.113727 131 131 122
-2.72706 -4.09497 0.753669 0.686903 0.497319 -0.529941 126 127 118
-2.72004 -4.11804 0.754395 0.421551 0.76363 -0.489044 129 129 121
-2.69143 -4.11345 0.757332 -0.305825 0.850564 0.427798 131 131 123
-2.67406 -4.10171 0.742548 0.212973 0.843103 -0.493782 140 140 132
-2.62681 -4.08672 0.753033 0.517452 0.854767 0.0402057 141 141 132
-2.60716 -4.08955 0.74618 0.700776 0.702464 0.12433 144 144 135
-2.58514 -4.11898 0.750674 0.695892 0.706651 0.127976 146 146 137
-2.56023 -4.12568 0.758589 0.69305 0.688293 0.214326 145 145 137
-2.54315 -4.11369 0.763878 0.645581 0.74001 0.188708 145 145 137
-2.5238 -4.1295 0.763427 0.705175 0.683498 0.188571 144 144 136
-2.48859 -4.13138 0.757437 0.690639 0.719636 -0.0717048 143 144 138
-2.44312 -4.09993 0.763107 0.196816 0.952851 -0.230952 146 147 143
-2.45864 -4.11544 0.757635 0.0757613 0.948093 -0.308837 146 147 142
-2.43752 -4.12315 0.75706 0.42432 0.793338 -0.43654 152 153 150
-2.36223 -4.15245 0.772992 0.389635 0.917735 -0.0771112 168 170 169
-2.3412 -4.18323 0.758802 0.659986 0.707865 0.251683 180 182 184
-2.32268 -4.18868 0.769917 0.121507 0.986998 0.105218 184 187 189
-2.26034 -4.1769 0.759548 -0.213996 0.976831 0.00261667 163 166 167
-2.24301 -4.1762 0.771591 -0.262949 0.964574 -0.0213079 152 154 153
-2.24225 -4.17792 0.773125 -0.196287 0.977755 0.0739394 152 154 152
-2.24293 -4.18157 0.768185 -0.375966 0.920816 0.103675 152 155 153
-2.22261 -4.16845 0.757635 -0.16829 0.958769 -0.229 154 157 155
-2.20661 -4.20231 0.778862 0.455614 0.877808 0.147883 154 157 155
-2.18647 -4.20765 0.766996 0.285603 0.909633 0.30166 165 167 169
-2.16453 -4.21536 0.775241 0.181339 0.851633 0.491769 162 165 165
-2.11719 -4.21613 0.772649 0.0371358 0.88499 0.464128 173 175 178
-2.09729 -4.2261 0.783975 -0.00150895 0.964813 0.262931 176 178 180
-2.0967 -4.22158 0.780864 0.315037 0.893939 0.318785 176 178 181
-2.07675 -4.23209 0.774969 0.138844 0.977001 0.161838 170 170 170
-2.05902 -4.22961 0.782171 0.105913 0.991819 0.0712603 164 164 163
-2.04703 -4.22586 0.784521 0.621874 0.756679 -0.201766 161 162 159
-2.03498 -4.24417 0.777776 0.454349 0.879939 0.138837 155 154 147
-2.01126 -4.27632 0.798273 0.595454 0.781345 -0.186909 156 156 149
-1.99221 -4.28955 0.797686 0.839749 0.517101 -0.165615 150 150 142
-1.48101 -4.70153 0.880964 -0.044788 0.347153 -0.936738 94 94 87
-1.47404 -4.72099 0.879788 0.132295 0.336287 -0.932421 99 99 91
0.135971 -4.76465 0.90928 -0.936203 0.333229 -0.111719 201 209 209
0.226375 -4.45903 0.836818 -0.923158 0.28896 -0.253537 174 188 192
0.237355 -4.42033 0.834709 -0.916633 0.180974 -0.356414 181 195 198
0.243437 -4.33771 0.830554 -0.912653 0.172092 -0.37074 194 208 211
0.25153 -4.30412 0.831561 -0.912116 0.173405 -0.371449 222 235 239
0.278584 -4.19555 0.794135 -0.859937 0.158545 -0.485152 210 219 221
0.301501 -4.12238 0.792501 -0.898507 0.147192 -0.413545 203 214 218
0.309014 -4.09019 0.793834 -0.896484 0.141879 -0.419745 216 226 229
0.313491 -4.09416 0.785864 -0.868707 0.146762 -0.473084 196 207 210
-2.74876 -4.10385 0.770507 -0.0381751 0.965319 -0.258267 128 129 119
-2.75702 -4.09293 0.770867 -0.290949 0.955508 0.0485141 128 128 119
-2.70114 -4.11822 0.771645 0.673427 0.682829 0.283268 125 125 117
-2.67255 -4.10214 0.765276 0.278971 0.864704 -0.417687 127 127 119
-2.68751 -4.13207 0.786473 0.128343 0.989887 0.0604336 122 123 113
-2.65355 -4.09197 0.772391 0.0921583 0.805077 0.585967 126 126 117
-2.63586 -4.08945 0.759818 0.156496 0.984701 -0.0766346 137 137 129
-2.61792 -4.09518 0.771087 0.26963 0.962225 -0.037713 136 136 127
-2.59921 -4.10618 0.769434 0.626629 0.76136 0.166335 142 142 133
-2.57971 -4.11977 0.768503 0.619439 0.751138 0.228225 145 145 136
-2.56382 -4.09871 0.770726 0.665476 0.727838 0.165511 144 144 135
-2.55816 -4.10559 0.770057 0.734559 0.665101 0.1344 146 145 137
-2.51862 -4.15702 0.79307 0.741661 0.643643 0.188845 145 145 136
-2.45778 -4.11653 0.780237 0.608113 0.764236 0.214808 144 145 139
-2.43191 -4.1119 0.773343 0.559262 0.785151 -0.266013 146 147 143
-2.40162 -4.15598 0.782933 0.679488 0.685375 -0.261833 156 157 156
-2.38409 -4.16718 0.778298 0.420407 0.871039 -0.254065 165 166 165
-2.38337 -4.16441 0.778777 0.519517 0.814852 -0.257135 164 166 164
-2.36539 -4.15402 0.786772 0.595481 0.768784 -0.233182 162 163 163
-2.34065 -4.18366 0.780525 0.690979 0.675571 0.2572 174 177 178
-2.34569 -4.16907 0.786892 0.492337 0.870209 0.0184826 168 170 170
-2.34676 -4.16874 0.786839 0.496771 0.867866 0.00523705 168 170 170
-2.34991 -4.17138 0.796792 0.266536 0.946532 0.18176 163 164 164
-2.31829 -4.16847 0.798012 0.0378757 0.763859 0.644271 171 171 169
-2.29998 -4.17198 0.787552 0.0907573 0.99576 -0.0149908 173 176 177
-2.28264 -4.17522 0.779316 -0.231797 0.972015 0.038179 174 177 179
-2.27231 -4.18174 0.786203 -0.210947 0.807526 0.55082 167 169 169
-2.25008 -4.20191 0.804851 0.284626 0.776784 0.561778 151 154 152
-2.22717 -4.18344 0.787926 0.144649 0.852088 0.503014 151 152 150
-2.18643 -4.22231 0.793139 0.264495 0.85153 0.452701 156 158 156
-2.16362 -4.24813 0.808411 0.424305 0.780925 0.458389 154 157 155
-2.11713 -4.22115 0.795251 0.352361 0.85148 0.38836 162 164 167
-2.09789 -4.23799 0.809352 0.387037 0.740912 0.548864 174 177 180
-2.07318 -4.25125 0.80502 0.211189 0.857318 0.469473 174 177 180
-2.07281 -4.25285 0.805826 0.205857 0.858074 0.47046 174 177 180
-2.07281 -4.25285 0.805826 0.205857 0.858074 0.47046 174 177 180
-2.0442 -4.24681 0.795043 0.47738 0.874746 -0.0832364 162 163 160
-2.03444 -4.25012 0.802579 0.234756 0.853936 0.464417 162 163 160
-1.99868 -4.29396 0.824695 0.571292 0.80915 -0.137481 153 154 148
-1.97663 -4.30782 0.814176 0.806447 0.547825 -0.222558 134 133 124
0.107685 -4.92454 0.96146 -0.579379 0.810517 0.0859172 140 144 141
0.149725 -4.73217 0.910426 -0.656054 0.215172 -0.723391 161 170 171
0.163531 -4.69813 0.911783 -0.919223 0.208453 -0.33403 198 208 211
0.167049 -4.6499 0.90744 -0.963629 0.228523 -0.138552 191 203 208
0.223421 -4.43826 0.865879 -0.917855 0.182039 -0.352708 211 225 230
0.228084 -4.39663 0.863745 -0.935485 0.182383 -0.302664 228 241 245
0.259886 -4.25799 0.826484 -0.965809 0.186357 -0.180233 179 191 195
0.264375 -4.21625 0.823738 -0.971785 0.218092 -0.0898356 213 225 227
0.266707 -4.17428 0.820482 -0.862736 0.161332 -0.479227 225 237 238
0.286103 -4.13846 0.819256 -0.836411 0.248465 -0.488551 233 243 245
0.288332 -4.1368 0.810735 -0.871033 0.193398 -0.451552 222 233 236
0.298288 -4.10748 0.812662 -0.89938 0.208087 -0.384469 240 250 250
-2.76152 -4.12498 0.790828 -0.573022 0.772882 -0.27258 122 122 113
-2.74465 -4.1335 0.80801 -0.421116 0.907006 0.00126989 114 114 105
-2.735 -4.13007 0.796013 -0.41363 0.856898 -0.30763 125 126 117
-2.70069 -4.13636 0.801089 0.594769 0.785137 -0.172655 124 125 116
-2.67406 -4.14376 0.798498 -0.335756 0.856389 0.392257 121 122 112
-2.63248 -4.12293 0.793057 -0.0531805 0.920724 0.386573 124 124 115
-2.65067 -4.12448 0.807087 0.0916617 0.985396 0.1435 119 119 111
-2.60952 -4.11608 0.795904 0.484775 0.874509 0.0150429 125 125 116
-2.59318 -4.11226 0.788996 0.321602 0.940248 0.111826 135 135 127
-2.5734 -4.12868 0.789037 0.335669 0.928629 0.158031 141 141 132
-2.58602 -4.11619 0.799443 0.147838 0.847512 0.509772 130 129 121
-2.56218 -4.16036 0.809221 0.88517 0.446898 0.129449 142 141 133
-2.5361 -4.17601 0.806729 0.148188 0.983595 0.102865 145 145 134
-2.51751 -4.16081 0.811646 0.486476 0.814514 -0.316084 142 142 134
-2.49661 -4.1731 0.816396 0.487565 0.751373 0.444657 144 144 135
-2.49646 -4.17241 0.816095 0.491955 0.750613 0.44109 144 144 135
-2.46536 -4.14356 0.796897 0.528084 0.773608 0.350225 144 145 137
-2.4203 -4.12989 0.799577 0.397679 0.762816 0.509866 144 146 141
-2.38436 -4.16418 0.800155 0.210928 0.92905 0.303932 151 151 151
-2.38949 -4.18085 0.813063 0.577187 0.730564 -0.364873 146 148 146
-2.36931 -4.16277 0.798133 0.502237 0.836964 -0.217367 155 156 155
-2.37063 -4.16119 0.796591 0.431116 0.899346 -0.0729077 155 156 156
-2.35344 -4.16908 0.808495 0.365988 0.882677 -0.294844 151 152 151
-2.34705 -4.18745 0.814144 0.544615 0.814294 -0.2008 154 156 154
-2.34811 -4.18651 0.814007 0.539995 0.815488 -0.208291 154 155 154
-2.30128 -4.17871 0.810457 -0.0159692 0.700723 0.713254 164 164 162
-2.29476 -4.19645 0.815077 0.380994 0.818062 0.430834 157 160 159
-2.28981 -4.20918 0.82061 -0.024675 0.84077 0.54083 154 156 156
-2.26655 -4.19013 0.813064 -0.0188981 0.847254 0.530852 151 153 151
-2.20904 -4.24254 0.816683 0.437625 0.776849 0.452759 151 154 151
-2.20654 -4.24256 0.818472 0.478395 0.820444 0.313065 152 154 151
-2.18633 -4.2507 0.824098 0.150267 0.888018 0.434561 153 156 152
-2.16327 -4.26061 0.83503 0.382569 0.782573 0.491142 152 154 152
-2.13926 -4.25104 0.818338 0.364869 0.857004 0.363887 154 156 155
-2.13557 -4.2605 0.835947 0.374663 0.924651 0.0681777 150 153 151
-2.11725 -4.23834 0.82077 0.314135 0.787497 0.530252 154 157 158
-2.08502 -4.26264 0.82599 0.236402 0.911873 0.335562 184 187 191
-2.05718 -4.26302 0.82235 -0.210984 0.808716 0.549058 175 178 181
-2.03408 -4.27184 0.830574 -0.0394797 0.814541 0.578761 168 170 171
-1.97923 -4.30826 0.842957 0.703426 0.643424 -0.301987 143 142 135
-1.73977 -4.52697 0.887088 0.0873353 0.327833 -0.94069 98 98 89
-1.7222 -4.56167 0.87974 0.0567721 0.347463 -0.935974 67 68 61
-1.58222 -4.5857 0.896882 -0.274028 0.373377 -0.886283 121 121 116
-1.08376 -4.71374 0.93415 0.020932 0.412978 -0.9105 159 161 160
-1.02562 -4.73804 0.926342 0.0580193 0.345702 -0.936549 119 122 119
-0.540178 -4.85464 0.967405 0.162189 0.785303 -0.597489 155 158 154
0.0996877 -4.86257 0.971068 -0.949563 0.313414 0.0101154 152 159 159
0.107691 -4.81274 0.966361 -0.953013 0.302914 0.0030874 179 187 189
0.191529 -4.49407 0.899078 -0.964924 0.261261 -0.0257852 185 200 203
0.215334 -4.41671 0.89588 -0.917704 0.179678 -0.35431 181 197 201
0.232016 -4.35948 0.866019 -0.952013 0.184967 -0.243843 212 226 229
0.245688 -4.28804 0.862764 -0.923301 0.1675 -0.345628 191 206 211
0.259013 -4.18648 0.849993 -0.970759 0.214384 -0.108009 226 238 240
0.281112 -4.12081 0.840685 -0.904151 0.147165 -0.401066 210 221 222
0.294101 -4.10659 0.822309 -0.89031 0.166209 -0.423938 238 248 248
0.291677 -4.07413 0.82714 -0.915205 0.146053 -0.375592 239 249 248
-2.80133 -4.1748 0.825455 -0.055196 0.98015 0.19042 102 103 94
-2.78295 -4.1741 0.81595 -0.306348 0.922632 0.234311 108 108 101
-2.73414 -4.13754 0.823426 0.328385 0.930345 -0.163162 96 96 88
-2.71757 -4.14106 0.810713 0.434578 0.886528 -0.158779 122 123 114
-2.70019 -4.14538 0.822469 0.286041 0.751506 0.594491 118 118 109
-2.6306 -4.13461 0.814211 0.46507 0.825078 0.320866 117 117 110
-2.62855 -4.13572 0.81474 0.437854 0.820763 0.366923 117 117 109
-2.60766 -4.14347 0.813369 0.543479 0.824721 0.156413 119 119 111
-2.59356 -4.11145 0.809861 0.718964 0.681793 0.135092 117 117 110
-2.60957 -4.1417 0.818726 0.629439 0.746809 0.214672 116 116 109
-2.55433 -4.1404 0.827437 0.0824547 0.895701 0.436946 119 118 111
-2.53454 -4.14736 0.818489 0.0500459 0.814766 -0.577626 136 136 128
-2.50834 -4.14812 0.830222 0.279093 0.771445 0.571822 134 134 126
-2.50815 -4.15893 0.828188 0.652822 0.755044 0.0610869 136 136 128
-2.48439 -4.1485 0.832615 0.373813 0.835368 0.403019 131 132 123
-2.46678 -4.16959 0.830335 0.346365 0.83252 -0.432369 139 140 132
-2.44622 -4.16189 0.836759 0.151226 0.987996 -0.0315273 134 135 128
-2.42573 -4.16762 0.821896 0.423585 0.825143 0.373785 144 145 139
-2.38492 -4.18547 0.829422 0.310763 0.784033 0.537326 141 143 139
-2.33584 -4.19893 0.835851 0.40661 0.774401 0.484739 140 142 140
-2.33612 -4.18121 0.825148 0.379929 0.834973 0.398088 143 144 142
-2.31415 -4.21041 0.846763 0.486529 0.838715 0.244635 135 136 133
-2.31094 -4.20954 0.843827 0.482266 0.829964 0.280319 137 139 136
-2.29423 -4.20375 0.828355 0.0616471 0.812273 0.58001 148 149 149
-2.26692 -4.21503 0.840428 -0.030965 0.814766 0.578963 141 144 141
-2.25828 -4.21272 0.833566 0.255673 0.903938 0.342824 144 147 144
-2.24019 -4.24445 0.835604 0.605727 0.740952 0.289975 147 149 146
-2.22188 -4.25958 0.853785 0.55378 0.806041 0.208868 141 143 140
-2.2076 -4.25646 0.853612 0.443391 0.779874 0.441815 140 142 140
-2.18633 -4.26113 0.847645 -0.108444 0.878598 0.465087 146 148 145
-2.14242 -4.27217 0.845242 0.635779 0.724245 0.266936 148 152 150
-2.10604 -4.26594 0.841243 0.343943 0.846332 0.406725 155 158 159
-2.11008 -4.2869 0.860679 0.200076 0.979277 -0.0314147 137 140 140
-2.0849 -4.27505 0.851231 -0.276344 0.854541 0.439765 161 164 167
-2.05725 -4.27916 0.848216 -0.0358254 0.901905 0.430447 175 178 183
-2.03396 -4.27819 0.8581 -0.093824 0.994056 0.0552263 149 152 154
-2.00685 -4.2851 0.845572 0.544072 0.829263 -0.127708 161 163 162
-1.99529 -4.29078 0.866801 0.646834 0.637 -0.419329 120 123 121
-1.85073 -4.42855 0.875285 0.157575 0.322613 -0.933323 137 137 128
-1.41924 -4.59365 0.920671 0.0710768 0.327338 -0.94223 150 156 158
-1.41931 -4.58801 0.914637 -0.00297678 0.34397 -0.938976 143 149 152
-1.24727 -4.66346 0.925207 -0.124133 0.358782 -0.92513 143 147 146
0.0761286 -4.91289 1.00291 -0.724992 0.279835 -0.629348 141 147 146
0.12877 -4.75163 0.958111 -0.951628 0.255538 -0.1706 208 218 221
0.154942 -4.63155 0.951266 -0.960078 0.22717 -0.163229 214 227 231
0.18738 -4.56794 0.937763 -0.908725 0.242279 -0.339883 224 236 241
0.183281 -4.50654 0.926225 -0.967573 0.236639 -0.0883441 199 214 218
0.215589 -4.36744 0.893683 -0.969758 0.204508 -0.133215 202 218 222
0.223598 -4.33877 0.892697 -0.949781 0.312127 -0.0222065 223 238 243
0.232156 -4.30524 0.893164 -0.879898 0.203489 -0.429386 224 238 242
0.247359 -4.20031 0.874802 -0.925793 0.342618 -0.15975 183 196 199
0.263689 -4.16077 0.849967 -0.896106 0.237257 -0.375103 231 243 245
0.281845 -4.08497 0.853053 -0.972794 0.221361 -0.0683538 207 221 223
-2.69461 -4.15911 0.837433 0.212191 0.854569 -0.474012 99 100 93
-2.65058 -4.11853 0.843597 0.0282682 0.978561 -0.20401 71 72 66
-2.61924 -4.1379 0.842416 0.581767 0.652986 -0.48493 91 91 84
-2.60039 -4.15044 0.840594 0.553452 0.822957 -0.12819 99 100 93
-2.57976 -4.15669 0.842988 0.389578 0.916863 -0.0871246 100 101 94
-2.50635 -4.15011 0.849825 0.768758 0.589366 -0.248312 106 106 99
-2.48411 -4.15339 0.857085 0.448175 0.807266 -0.384006 95 96 88
-2.46613 -4.16562 0.850573 0.174066 0.885135 -0.431552 113 114 107
-2.42523 -4.16849 0.841241 0.18407 0.940832 0.284522 134 135 129
-2.40551 -4.18392 0.862643 0.210209 0.892249 -0.399631 113 115 106
-2.41789 -4.17882 0.843914 0.573517 0.806862 0.141606 135 137 130
-2.42405 -4.18376 0.850525 0.0920237 0.921491 -0.377341 131 132 126
-2.39547 -4.19628 0.845828 0.502609 0.863939 0.0315371 139 141 136
-2.35476 -4.20213 0.847533 0.103208 0.918545 0.381606 130 131 129
-2.35346 -4.17263 0.853068 0.614688 0.767816 0.180605 116 117 113
-2.33281 -4.21779 0.862503 0.201443 0.940415 -0.273934 123 125 121
-2.27811 -4.22686 0.871917 0.688282 0.720673 0.0830514 98 99 98
-2.25866 -4.24306 0.871127 0.677342 0.735061 0.0298859 113 114 112
-2.24023 -4.24427 0.859234 0.223964 0.92834 -0.296691 132 134 131
-2.22191 -4.26423 0.879735 0.338126 0.934865 -0.108158 108 110 106
-2.13777 -4.26151 0.875619 0.751532 0.431307 -0.499173 120 122 120
-2.11018 -4.28205 0.880776 0.449503 0.892675 -0.032854 128 132 132
-2.08486 -4.29032 0.878751 0.0709091 0.844477 -0.530877 122 127 128
-2.05779 -4.27577 0.86588 -0.262713 0.955062 -0.137251 152 156 159
-2.0328 -4.26911 0.87981 0.229024 0.56904 -0.789773 135 140 145
-2.01535 -4.2782 0.867073 0.635565 0.588585 -0.499625 122 126 126
0.105938 -4.84763 1.00274 -0.959082 0.260803 -0.110198 200 209 214
0.208164 -4.39706 0.92666 -0.964212 0.265105 0.00382996 207 223 228
0.2389 -4.26932 0.893305 -0.927446 0.167092 -0.334552 223 237 240
0.254768 -4.16752 0.87138 -0.892372 0.241533 -0.381226 198 211 216
0.265071 -4.13991 0.875006 -0.90012 0.147475 -0.409922 188 203 207
0.262872 -4.14684 0.881981 -0.951652 0.192909 -0.23905 193 208 213
0.276566 -4.11149 0.875615 -0.976907 0.208062 -0.0486012 192 207 211
0.275663 -4.12025 0.882489 -0.892893 0.42852 -0.138251 206 222 224
-2.70318 -4.11085 0.864589 0.000673056 0.359322 -0.933213 99 100 90
-2.60222 -4.12914 0.856838 0.851748 0.262957 -0.453187 69 69 65
-2.55549 -4.14841 0.872502 0.669685 0.4893 -0.558667 101 102 95
-2.54091 -4.14787 0.862464 0.652642 0.499229 -0.569937 94 94 87
-2.46583 -4.15445 0.869789 -0.0506693 0.397943 -0.91601 82 82 76
-2.40667 -4.12804 0.873317 0.710491 0.36692 -0.600476 80 81 77
-2.37318 -4.14841 0.858861 0.66289 0.731248 -0.16079 113 114 109
-2.37264 -4.14722 0.859158 0.653012 0.737783 -0.171029 113 113 108
-2.33229 -4.19318 0.874594 0.675125 0.409606 -0.613539 104 105 101
-2.31433 -4.21204 0.87099 0.50968 0.672521 -0.536602 113 114 111
-2.24032 -4.25169 0.886455 0.416788 0.85859 -0.298515 102 104 101
-2.15665 -4.25148 0.883149 0.262924 0.855907 -0.445302 110 113 111
-2.03328 -4.25373 0.896374 0.351418 0.921424 -0.165779 136 145 154
-2.01591 -4.25597 0.888337 0.728553 0.674772 -0.117871 131 138 147
-1.99768 -4.27588 0.888493 0.726223 0.676053 -0.124705 154 160 164
-1.94523 -4.27859 0.909827 0.153616 0.302098 -0.940818 176 182 187
-1.92392 -4.29634 0.903065 0.227652 0.293279 -0.928526 152 157 159
-1.39764 -4.47794 0.941435 0.138061 0.317131 -0.938279 126 132 136
-0.981832 -4.62472 0.971213 -0.145505 0.324887 -0.934493 136 140 141
0.0840848 -4.84315 1.0291 -0.744827 0.250233 -0.618559 152 161 162
0.17292 -4.61933 0.981737 -0.956252 0.292184 -0.0145442 218 234 240
0.176527 -4.569 0.975887 -0.964257 0.219785 -0.147999 181 197 204
0.231577 -4.29977 0.927805 -0.890632 0.161305 -0.425153 188 203 210
0.253906 -4.15849 0.903678 -0.929155 0.172966 -0.326733 218 233 236
0.267521 -4.13358 0.906008 -0.864875 0.312492 -0.39286 236 249 250
-2.65141 -4.09717 0.87084 0.148591 0.5281 -0.836081 65 65 62
-2.60023 -4.03073 0.859749 0.411327 0.412567 -0.812773 88 88 85
-2.59963 -4.09266 0.868905 0.906287 0.391308 -0.159757 75 75 71
-2.57207 -4.01729 0.866893 0.355307 0.774289 -0.523673 97 97 93
-2.58518 -4.09186 0.874743 0.436442 0.210159 -0.874844 72 73 69
-2.55918 -4.06956 0.872293 0.513177 0.299181 -0.80445 95 96 91
-2.5804 -4.09061 0.864403 0.504878 0.29445 -0.811417 84 85 81
-2.55879 -4.06664 0.871505 0.360072 0.24855 -0.899206 96 96 91
-2.5804 -4.09061 0.864403 0.504878 0.29445 -0.811417 84 85 81
-2.57308 -4.13048 0.875744 0.569302 0.408364 -0.713536 98 99 94
-2.55203 -4.09538 0.879424 0.515955 0.298279 -0.803007 108 109 102
-2.53898 -4.12026 0.880213 0.53249 0.779937 -0.328865 104 105 98
-2.52006 -4.12501 0.876479 0.80302 0.572524 -0.165453 87 87 80
-2.44232 -4.09301 0.883831 0.209335 0.545182 -0.811761 102 104 99
-2.42514 -4.11763 0.881826 0.630197 0.355382 -0.69033 80 82 79
-2.3799 -4.11115 0.885014 0.487154 0.446683 -0.750436 93 96 97
-2.37926 -4.11578 0.888489 0.513644 0.324661 -0.794207 92 96 97
-2.3598 -4.12358 0.880427 0.44726 0.253881 -0.857615 93 96 98
-2.3096 -4.19193 0.893359 0.594803 0.291812 -0.749036 119 121 120
-2.1571 -4.21455 0.906981 0.0513583 0.47244 -0.879865 187 195 205
-2.15668 -4.23867 0.902063 0.124264 0.423109 -0.897517 154 160 165
-1.96364 -4.25036 0.915951 0.16582 0.297734 -0.940137 139 147 156
-1.92473 -4.22306 0.915896 -0.0285122 0.331158 -0.943145 168 175 184
-1.9288 -4.24289 0.921252 0.244141 0.283743 -0.9273 168 175 184
-1.83313 -4.27648 0.917351 0.120076 0.306525 -0.944258 170 177 180
0.0751323 -4.82191 1.0571 -0.801265 0.274883 -0.531425 132 141 140
0.0891018 -4.79349 1.06139 -0.771805 0.219555 -0.596752 124 132 131
0.129807 -4.74328 1.03464 -0.914709 0.371603 0.158804 189 200 206
0.213391 -4.40138 0.963456 -0.97251 0.232853 0.00201859 220 235 241
0.2334 -4.20694 0.934764 -0.970636 0.184237 -0.154666 222 238 241
0.265738 -4.13643 0.909928 -0.90512 0.370512 -0.208513 236 249 250
0.263601 -4.06861 0.894897 -0.976995 0.191561 -0.0937297 194 208 210
-2.56115 -3.95465 0.874623 0.697423 0.553625 -0.455083 114 115 110
-2.57171 -4.0021 0.884821 0.826936 0.272876 -0.491646 114 114 110
-2.50972 -4.00421 0.886794 0.435979 0.354326 -0.82727 97 97 92
-2.53125 -4.07267 0.891229 0.623635 0.313483 -0.716105 116 117 110
-2.4932 -4.03893 0.889897 0.633307 0.281942 -0.720716 113 114 107
-2.49815 -4.07498 0.887302 0.403375 0.264475 -0.87598 114 115 108
-2.44308 -4.07471 0.900517 0.633516 0.212342 -0.744022 102 104 101
-2.41989 -4.08558 0.89573 0.614428 0.256434 -0.746137 102 104 104
-2.39585 -4.08825 0.887745 0.0687712 0.769551 -0.634871 102 105 107
-2.35047 -4.06253 0.888288 0.454707 0.304273 -0.837054 110 117 122
-2.33639 -4.12385 0.903706 0.550447 0.206693 -0.808879 128 133 139
-2.14298 -4.19058 0.918611 0.516066 0.249615 -0.819371 142 155 172
-1.8921 -4.22657 0.926201 0.236206 0.284218 -0.929208 158 166 174
-1.0707 -4.40359 0.987812 0.118687 0.313424 -0.942167 122 128 130
0.141058 -4.72251 1.06801 -0.951678 0.306534 0.0186086 129 141 143
0.210239 -4.40584 0.987286 -0.966994 0.251237 -0.0424556 200 216 223
0.209514 -4.34771 0.973805 -0.967468 0.225436 -0.11482 203 219 226
0.221695 -4.32689 0.982346 -0.925802 0.168535 -0.33836 218 234 239
0.22273 -4.27926 0.976941 -0.970964 0.199513 -0.131996 228 244 247
0.254327 -4.14399 0.936816 -0.974911 0.221561 -0.0214192 204 218 222
0.25356 -4.09223 0.926461 -0.975167 0.182185 -0.125929 230 244 245
0.25181 -4.09068 0.928211 -0.975298 0.214868 -0.051236 229 242 244
0.257362 -4.14601 0.935164 -0.932337 0.356953 -0.0577243 211 225 228
-2.59412 -3.90368 0.879498 0.331421 0.700174 -0.63239 97 97 95
-2.57575 -3.92237 0.876937 0.594253 0.679879 -0.429683 101 102 98
-2.54541 -3.93367 0.891753 0.329705 0.242452 -0.912421 134 135 131
-2.52516 -3.96794 0.892128 0.124525 0.295948 -0.947052 122 123 118
-2.47883 -4.00729 0.908179 0.672732 0.2936 -0.67914 133 135 134
-2.45985 -4.0174 0.897599 0.547903 0.20139 -0.811939 143 144 143
-2.39573 -4.04711 0.899277 0.560654 0.294805 -0.773794 146 148 150
-2.36081 -4.02214 0.904841 0.316898 0.571111 -0.757237 167 172 175
-2.34038 -4.03975 0.904257 0.341961 0.340611 -0.875812 163 171 176
-2.33991 -4.03572 0.90543 0.387175 0.341196 -0.856552 170 178 183
-2.30445 -4.04019 0.918122 0.195354 0.284388 -0.938595 168 176 182
-2.14025 -4.08185 0.925689 -0.146981 0.469512 -0.870606 200 213 226
-2.10805 -4.08703 0.922067 -0.22352 0.622173 -0.750293 159 174 186
-2.08641 -4.11218 0.919435 0.0712447 0.307186 -0.948979 138 150 163
-2.07076 -4.08504 0.929149 0.0919136 0.298936 -0.949836 162 173 183
-2.05441 -4.11415 0.922717 0.0398897 0.313328 -0.948807 181 190 201
-1.95826 -4.12387 0.933409 -0.0740683 0.334592 -0.939448 122 130 137
-1.94008 -4.14447 0.926861 0.286119 0.283265 -0.915367 115 125 136
0.188534 -4.67059 1.06394 -0.704836 0.602852 -0.373865 193 208 215
0.234766 -4.19742 0.965737 -0.958813 0.241207 -0.149989 200 214 219
0.23516 -4.19251 0.966818 -0.94013 0.163835 -0.298853 195 210 215
0.24545 -4.15495 0.965552 -0.935128 0.263183 -0.237214 187 202 208
0.244003 -4.15088 0.958964 -0.927015 0.215356 -0.307027 184 199 205
0.284653 -3.98376 0.921929 -0.890968 0.125375 -0.436415 233 245 247
-2.59262 -3.88058 0.898858 0.765434 0.500994 -0.403877 105 108 110
-2.61381 -3.89408 0.884632 0.834277 0.258707 -0.486881 104 104 99
-2.55315 -3.91074 0.893003 0.845557 0.279642 -0.45479 141 142 141
-2.50984 -3.94271 0.907708 0.40575 0.260011 -0.87622 135 136 132
-2.48163 -3.94956 0.910261 0.258374 0.28984 -0.92154 148 150 150
-2.29079 -4.01589 0.931065 0.205073 0.26664 -0.941726 168 177 185
-2.16741 -4.0996 0.939043 -0.0709583 0.37563 -0.924049 191 201 213
-1.97829 -3.98482 0.928676 0.0777289 0.716348 -0.6934 156 164 170
-1.9587 -3.99402 0.922629 0.284449 0.703882 -0.650875 145 153 161
-1.67571 -4.07455 0.954052 -0.103437 0.321284 -0.941317 148 156 161
-1.44162 -4.20523 0.972186 0.0953438 0.298568 -0.949614 134 143 150
-1.08988 -4.30803 1.01197 0.111129 0.302972 -0.946498 173 178 180
-0.566953 -4.44704 1.0456 0.0827469 0.469099 -0.879261 130 136 135
0.222095 -4.35722 1.02121 -0.969977 0.236358 -0.0572666 212 229 236
0.230732 -4.27164 1.01465 -0.960317 0.259136 -0.103154 211 227 232
0.230436 -4.21631 1.00458 -0.97343 0.228111 0.0200069 208 224 230
0.23627 -4.17558 0.995394 -0.932331 0.321494 -0.165531 222 237 241
0.275639 -4.01251 0.954879 -0.905066 0.209967 -0.369822 235 246 247
-2.64836 -3.88399 0.918132 0.0538378 0.487376 -0.871531 93 96 94
-2.62189 -3.88296 0.919514 0.0250434 0.468658 -0.883025 121 125 127
-2.56948 -3.86422 0.911331 0.494444 0.487863 -0.719385 125 132 138
-2.57228 -3.85099 0.909579 0.594204 0.702518 -0.391651 126 133 140
-2.55233 -3.88098 0.908111 0.565022 0.30809 -0.765396 161 163 166
-2.48963 -3.90291 0.92634 0.208072 0.369727 -0.905543 156 158 160
-2.43816 -3.91933 0.916785 0.0276327 0.550292 -0.834515 129 138 147
-2.41616 -3.90888 0.924178 0.118748 0.6385 -0.760406 122 133 146
-2.40154 -3.92006 0.931345 0.353237 0.341825 -0.87085 119 132 146
-2.20653 -3.9248 0.932867 -0.398949 0.499032 -0.76929 175 187 199
-2.0294 -3.96122 0.942741 0.34152 0.45148 -0.824336 120 130 137
-1.98327 -3.97006 0.93743 -0.0364194 0.789772 -0.612318 196 203 209
-1.95806 -3.97543 0.937886 0.230511 0.710247 -0.665142 140 151 159
-1.9399 -3.9914 0.934865 0.0420224 0.372006 -0.927279 125 135 145
-1.93055 -3.9782 0.941852 -0.0908767 0.628176 -0.772746 108 119 129
-1.91283 -3.99807 0.938835 -0.00830922 0.397984 -0.917355 146 154 163
-1.90746 -3.99997 0.940499 0.0801745 0.760519 -0.644346 149 157 166
-1.79291 -4.03366 0.951612 0.0485741 0.54226 -0.838805 180 187 192
-1.68598 -4.08175 0.957622 -0.0787919 0.331637 -0.940111 169 176 181
-1.60304 -4.08656 0.967946 -0.236887 0.348145 -0.907017 165 171 173
-1.01425 -4.33256 1.0208 0.0270617 0.302156 -0.952874 153 159 160
-0.451064 -4.48591 1.07099 -0.045417 0.295849 -0.954154 147 153 152
0.232194 -4.40836 1.0674 -0.967338 0.201951 -0.153209 180 196 206
0.224132 -4.29249 1.02986 -0.971246 0.227169 -0.0712399 183 199 205
0.23357 -4.29273 1.04703 -0.940628 0.164946 -0.296667 193 210 216
0.243838 -4.08856 0.983121 -0.975344 0.206342 -0.0782774 197 212 214
0.263708 -4.02866 0.980233 -0.969078 0.158123 -0.189436 203 216 220
0.26391 -4.02004 0.977114 -0.977098 0.200771 -0.0704961 200 213 217
0.28319 -3.97949 0.956988 -0.880768 0.179472 -0.43822 239 248 248
-2.66842 -3.87022 0.918596 0.486273 0.555171 -0.674777 91 93 90
-2.63392 -3.85886 0.928725 -0.0752102 0.368019 -0.926772 156 160 160
-2.63421 -3.85972 0.92916 -0.0410304 0.351774 -0.935185 156 160 160
-2.60609 -3.85929 0.92655 0.0950754 0.295562 -0.950581 178 185 191
-2.58957 -3.8471 0.915035 0.0950519 0.745529 -0.65966 149 157 166
-2.53276 -3.8238 0.927759 0.430444 0.245296 -0.868647 150 157 161
-2.51176 -3.86328 0.934129 0.490184 0.182236 -0.852355 168 170 171
-2.52281 -3.87886 0.925266 0.512848 0.267925 -0.8156 156 159 160
-2.51339 -3.87562 0.935408 0.405369 0.199593 -0.892098 167 170 171
-2.43845 -3.89955 0.931447 0.0290008 0.562247 -0.826461 146 157 167
-2.41599 -3.88557 0.937006 0.0759069 0.461746 -0.883758 134 146 159
-2.41509 -3.88541 0.93665 0.0599222 0.429347 -0.90115 134 146 159
-2.12387 -3.88728 0.945566 0.32074 0.415474 -0.85118 134 146 158
-2.1029 -3.90625 0.946666 0.109432 0.333778 -0.936278 111 123 134
-2.06165 -3.91243 0.953205 0.139908 0.502158 -0.853383 177 184 190
-2.04548 -3.93769 0.948478 0.207845 0.374175 -0.903767 150 157 163
-2.01738 -3.93863 0.955231 0.202101 0.374465 -0.904948 150 159 162
-1.99727 -3.95758 0.952943 0.0212793 0.721631 -0.69195 168 174 178
-1.97197 -3.96262 0.953275 -0.0643906 0.48862 -0.870117 205 212 221
-1.92192 -3.96041 0.961428 0.127749 0.590185 -0.797096 102 116 128
-1.90436 -3.97797 0.957179 0.47142 0.370722 -0.800205 101 114 126
-1.19498 -4.21189 1.0139 -0.0255844 0.309109 -0.950682 171 179 183
0.232122 -4.25223 1.04669 -0.97162 0.188377 -0.143071 206 223 229
0.235312 -4.15507 1.02217 -0.913418 0.145686 -0.380057 215 229 234
0.237232 -4.10434 1.00979 -0.945012 0.154788 -0.288085 216 230 232
0.255843 -4.04329 1.00856 -0.848612 0.231065 -0.475885 190 207 213
0.264828 -3.99989 1.0008 -0.972042 0.157683 -0.173983 197 213 218
0.265817 -3.99142 0.997798 -0.94895 0.141014 -0.282149 193 208 213
-2.6098 -3.81181 0.930873 -0.0772642 0.363913 -0.928223 171 179 187
-2.61545 -3.82275 0.935662 0.00742556 0.326583 -0.945139 165 172 180
-2.6194 -3.836 0.937102 -0.0466735 0.350012 -0.935582 165 171 177
-2.61142 -3.80968 0.935381 0.317953 0.224379 -0.921173 168 177 186
-2.56623 -3.79851 0.938884 0.16555 0.372247 -0.91325 173 181 190
-2.56428 -3.8282 0.930886 0.400563 0.703569 -0.586976 186 195 204
-2.55045 -3.80899 0.936006 0.265854 0.377526 -0.887015 182 190 198
