ply
format ascii 1.0
element vertex 743
property float x
property float y
property float z
property float nx
property float ny
property float nz
property uchar diffuse_red
property uchar diffuse_green
property uchar diffuse_blue
end_header
4.72624 -7.62969 0.953059 0.158942 0.986683 0.0345399 133 133 123
4.75903 -7.63527 0.972062 0.0962415 0.983853 0.150901 134 135 123
4.7936 -7.63818 0.953223 -0.0394644 0.997796 0.053345 123 123 115
4.79443 -7.63173 0.955145 -0.24438 0.964827 0.0968896 126 127 119
4.82588 -7.63715 0.971958 -0.140354 0.978537 0.150887 119 121 112
4.82454 -7.62919 0.971654 -0.0862915 0.971812 0.219395 118 120 112
4.86178 -7.63466 0.954848 -0.0957881 0.989404 0.109104 105 107 96
4.89525 -7.6351 0.974755 0.0343627 0.994617 0.0977595 105 107 97
4.92874 -7.63784 0.955072 0.146972 0.989091 0.00986226 120 121 112
4.98678 -7.64483 0.968967 0.178678 0.982082 -0.0599011 123 124 116
4.96011 -7.63915 0.97355 0.195509 0.980702 -0.00098303 119 120 110
5.02137 -7.65879 0.950138 0.296499 0.936156 -0.188943 109 110 103
5.08663 -7.66498 0.988883 0.281864 0.954165 -0.100611 92 93 86
5.08646 -7.66319 0.989646 0.25129 0.966723 0.0479587 91 92 86
5.05179 -7.64994 0.96989 0.233459 0.968315 0.088671 88 89 81
5.05162 -7.65433 0.967243 0.257064 0.63107 -0.731894 88 88 81
5.1204 -7.66983 0.968744 0.304284 0.947214 0.100982 127 127 117
5.12022 -7.669 0.96739 0.299823 0.948084 0.106035 126 127 116
5.28362 -7.68585 0.993468 -0.145371 0.982167 0.119231 105 108 101
5.31855 -7.68234 0.975802 -0.268794 0.96317 -0.00729093 121 122 113
5.37745 -7.66533 0.97724 -0.479943 0.821591 0.307639 122 124 116
5.35228 -7.67569 0.99572 -0.253482 0.967243 0.0137381 132 133 123
5.41093 -7.64839 0.95914 -0.131119 0.991091 -0.0233598 102 103 95
5.41015 -7.65329 0.95715 -0.104143 0.979119 -0.174587 105 106 98
5.44378 -7.64339 0.978898 -0.263134 0.962797 0.0615078 81 84 79
5.44481 -7.64218 0.980459 -0.286523 0.956868 0.0480409 80 84 78
5.44228 -7.64429 0.97622 -0.261913 0.964966 -0.0155707 82 86 80
5.47723 -7.63275 0.961568 0.376071 0.920546 0.105666 134 135 126
5.50965 -7.6521 0.962514 0.242903 0.958072 -0.151973 129 130 120
5.51167 -7.65316 0.963497 0.21739 0.976076 -0.00406952 129 129 119
5.51189 -7.65397 0.965416 0.215275 0.975766 -0.039217 130 131 121
5.5447 -7.66044 0.984004 0.267127 0.962618 -0.0448225 125 126 116
5.5465 -7.66047 0.985469 0.283016 0.955337 -0.08505 124 125 115
5.54689 -7.66136 0.98735 0.274859 0.957825 -0.0838132 123 124 115
5.57774 -7.66731 0.962001 0.249882 0.968276 0.00122899 116 118 110
5.58051 -7.66879 0.965414 0.200498 0.977945 0.0585172 114 116 108
5.57976 -7.66756 0.963511 0.244105 0.969725 0.00681289 115 116 109
5.61336 -7.67722 0.983613 0.219734 0.975088 -0.030333 79 81 74
5.61484 -7.67672 0.98485 0.204264 0.978823 -0.0135155 78 79 73
5.6145 -7.67653 0.9862 0.198642 0.980028 0.00935867 78 79 73
5.64782 -7.68078 0.964848 0.215129 0.970278 0.110814 96 97 89
5.68203 -7.68913 0.984282 0.20639 0.976153 0.0672975 107 108 100
5.71992 -7.70234 1.00559 0.231308 0.971454 0.0526655 119 120 109
5.76745 -7.7134 1.0067 0.253218 0.963926 0.0820179 103 104 94
5.79892 -7.71249 0.98462 0.188739 0.974989 -0.117363 77 78 72
5.8869 -7.73209 1.00133 0.304288 0.911664 0.276182 90 93 87
5.92415 -7.73351 0.975634 0.352266 0.886819 0.299099 124 125 114
6.01427 -7.76023 1.00549 0.0833514 0.994754 0.0593028 84 86 82
6.01826 -7.76377 1.00497 0.0210417 0.998767 0.0449639 85 87 83
6.05223 -7.7581 0.985438 -0.21442 0.976472 -0.0229378 103 105 98
6.05433 -7.76051 1.02551 -0.244971 0.96109 0.127656 131 133 125
6.08877 -7.75167 1.00754 -0.357531 0.932752 -0.0463166 132 134 124
6.11402 -7.72033 0.994467 0.0199512 0.960336 0.27813 125 127 118
6.17415 -7.70177 0.99064 -0.659992 0.720556 -0.212626 80 84 78
6.21849 -7.67141 1.00523 -0.387117 0.888148 0.247658 79 84 81
6.22059 -7.66661 0.965531 -0.474746 0.866511 0.154191 134 137 130
6.25241 -7.65486 0.988729 0.125139 0.974997 -0.183634 135 136 127
6.47752 -7.83192 1.02799 0.276357 0.946337 0.167553 59 59 50
6.52046 -7.83907 1.04634 -0.278195 0.913255 0.297613 89 89 81
6.53621 -7.84008 1.01145 -0.256831 0.933751 0.249295 108 109 97
6.59875 -7.81273 1.01519 -0.61068 0.487707 0.623869 73 72 57
0.347505 -7.4132 0.877594 0.792529 0.373681 -0.481934 90 90 85
0.418673 -7.38634 0.906954 0.133418 0.396275 -0.908386 57 57 57
0.545751 -7.42494 0.890558 0.592821 0.592316 -0.545642 93 93 89
0.519913 -7.36168 0.903032 0.496631 0.690129 -0.526384 109 110 103
0.624268 -7.43661 0.89153 0.110794 0.462367 -0.879739 101 101 94
0.656641 -7.41456 0.909205 0.27841 0.459933 -0.843178 109 109 102
0.688016 -7.4447 0.899886 0.688014 0.518667 -0.507564 107 108 103
0.696579 -7.39524 0.913322 0.0534988 0.498192 -0.865415 118 119 112
0.729678 -7.4136 0.897319 0.668604 0.485601 -0.56317 85 86 82
0.729678 -7.4136 0.897319 0.668604 0.485601 -0.56317 85 86 82
0.828181 -7.44081 0.913387 0.399979 0.434256 -0.807118 91 91 87
0.879417 -7.40245 0.916878 0.207002 0.474992 -0.855297 123 124 118
0.938419 -7.46375 0.907593 0.767951 0.568954 -0.294183 116 117 113
1.02418 -7.48987 0.929333 -0.0101681 0.536891 -0.84359 126 126 120
1.08856 -7.48535 0.924223 0.186788 0.488565 -0.852299 103 104 99
1.26813 -7.50666 0.919011 -0.464419 0.414353 -0.782705 98 99 95
1.2928 -7.47825 0.933416 0.370409 0.46799 -0.802361 136 137 131
1.27652 -7.47078 0.937574 -0.238038 0.312264 -0.91969 135 135 130
1.32998 -7.5195 0.924151 0.373706 0.469944 -0.799685 128 129 123
1.32073 -7.48674 0.929122 0.230709 0.479138 -0.846876 137 138 132
1.37259 -7.51099 0.93367 0.0194558 0.52532 -0.850682 146 147 140
1.35888 -7.5285 0.926492 0.44531 0.61323 -0.652417 141 141 135
1.39319 -7.5123 0.929609 -0.423047 0.613785 -0.666558 146 146 140
1.40206 -7.50288 0.941776 -0.359398 0.601853 -0.713166 152 152 146
1.42889 -7.53678 0.931048 -0.201421 0.567063 -0.798667 135 136 131
1.42217 -7.52866 0.93444 -0.404937 0.500803 -0.764999 142 142 136
1.42673 -7.52604 0.922539 -0.304925 0.544854 -0.781124 126 127 123
1.48876 -7.49914 0.930396 0.0120992 0.398928 -0.916902 149 149 144
1.53252 -7.51101 0.918099 0.0736668 0.470178 -0.879492 152 152 145
1.5239 -7.4916 0.923053 0.109148 0.469224 -0.876308 155 155 149
1.5762 -7.46216 0.927489 0.436843 0.482588 -0.759129 153 152 143
1.57482 -7.46013 0.935604 0.126248 0.470221 -0.873472 158 156 147
1.61315 -7.50325 0.920659 0.434127 0.48641 -0.758247 154 154 145
1.66437 -7.53941 0.950699 0.602793 0.784003 -0.148255 149 148 139
1.70029 -7.51324 0.945788 0.61543 0.770727 -0.165004 127 126 118
1.74303 -7.54532 0.94709 0.614787 0.771072 -0.165784 101 99 89
1.73322 -7.54339 0.946218 0.691921 0.707632 -0.143187 101 99 90
1.77305 -7.56334 0.932063 0.529508 0.806889 -0.261822 120 120 113
1.8375 -7.57974 0.950945 -0.264371 0.962646 -0.0584818 73 75 72
1.8695 -7.56818 0.931774 -0.197806 0.978777 -0.0535598 73 75 73
1.90237 -7.56446 0.95137 -0.0819355 0.996577 -0.0110096 115 115 109
2.00564 -7.56284 0.953687 -0.0763482 0.995881 0.0489011 97 99 92
1.97138 -7.55643 0.932854 -0.0358141 0.999252 0.0145735 137 138 128
2.03649 -7.55781 0.933778 0.0739907 0.986425 0.146597 71 73 70
2.07023 -7.56168 0.953292 0.039935 0.996556 0.0726725 79 81 79
2.1025 -7.56428 0.934799 0.154354 0.987281 0.0380841 88 90 88
2.10259 -7.56626 0.972489 0.166287 0.985362 0.0375459 129 129 122
2.13403 -7.56658 0.952518 0.165644 0.980677 0.104087 135 135 129
2.16591 -7.56828 0.96948 0.00433823 0.999961 -0.00767948 139 140 132
2.19756 -7.56462 0.952099 0.0485482 0.992532 0.111907 76 78 76
2.19843 -7.56503 0.950933 0.0224965 0.994963 0.0976902 74 76 75
2.22967 -7.55995 0.967648 -0.310678 0.94974 0.0383911 70 71 69
2.22878 -7.56014 0.9686 -0.307373 0.951554 0.00817677 70 72 70
2.28745 -7.58105 0.952783 -0.348978 0.886498 -0.303868 106 106 99
2.32604 -7.55468 0.964705 -0.0961962 0.984639 -0.145711 135 133 123
2.35943 -7.5524 0.945552 0.0341157 0.984537 -0.171823 133 132 123
2.42246 -7.56014 0.942791 0.152176 0.988119 0.021534 85 87 82
2.39299 -7.56115 0.964805 0.200425 0.976041 -0.0847023 93 93 87
2.45545 -7.5672 0.962425 0.180879 0.981192 0.067423 67 69 68
2.49113 -7.575 0.944971 0.238955 0.955769 -0.171484 70 72 71
2.52358 -7.5787 0.963564 0.202384 0.978606 -0.0370412 103 104 101
2.52397 -7.58035 0.966518 0.217943 0.969663 -0.110703 108 109 105
2.5566 -7.58562 0.947828 0.124025 0.990257 -0.0633098 62 64 65
2.58896 -7.58921 0.966336 0.0394621 0.993911 0.102875 60 64 63
2.62122 -7.59131 0.946561 0.132589 0.990081 0.0464792 92 94 88
2.62109 -7.58888 0.984145 0.172051 0.982072 0.0770263 66 68 65
2.70263 -7.61205 0.978327 0.138572 0.984538 -0.10716 114 114 103
2.73479 -7.62066 0.959461 0.140138 0.988275 -0.0606185 112 112 104
2.76649 -7.62807 0.978423 0.0424649 0.98768 -0.150616 128 128 119
2.79978 -7.62844 0.959382 0.0825011 0.993629 -0.0767751 123 123 114
2.85214 -7.62525 0.97553 0.0132512 0.994437 -0.104495 65 68 67
2.88504 -7.6237 0.994465 0.109721 0.991653 0.0677242 94 97 95
2.91 -7.62989 0.958741 0.487887 0.790153 0.370978 58 64 67
2.94142 -7.61988 0.975471 -0.265998 0.954768 -0.1329 64 69 70
2.97453 -7.61391 0.958027 -0.296423 0.951639 0.0807281 93 97 94
2.97502 -7.61978 0.996893 -0.131476 0.95998 0.247292 68 73 73
3.00553 -7.60167 0.977083 -0.18755 0.964891 0.183877 122 124 118
3.03674 -7.58723 0.958222 -0.206437 0.969308 0.133515 134 134 127
3.06973 -7.58503 0.978521 -0.272066 0.946778 0.172025 100 101 96
3.10319 -7.57671 0.962177 -0.125572 0.974944 0.183622 77 79 74
3.15826 -7.57814 0.953265 0.147601 0.981287 0.123653 126 126 117
3.20593 -7.59038 0.967447 0.263886 0.953814 -0.143534 103 103 97
3.23756 -7.59243 0.963164 0.257693 0.951904 -0.165751 64 67 66
3.28149 -7.5939 0.97929 0.364155 0.822453 0.436992 59 63 66
3.45384 -7.64124 1.00266 0.0783162 0.992545 0.0933814 81 81 74
3.45345 -7.64075 1.00236 0.0759093 0.993273 0.0874483 81 81 74
3.48742 -7.6419 0.983452 0.0484977 0.988236 0.145046 83 84 77
3.51845 -7.63599 1.00213 0.0606685 0.991165 0.117947 115 114 106
3.5519 -7.63979 0.983157 0.05858 0.997253 0.0453265 139 139 129
3.61073 -7.65015 0.980154 0.334413 0.941815 -0.0339476 66 69 66
3.61866 -7.64177 0.983298 0.199235 0.976292 -0.0846137 61 64 62
3.58567 -7.63316 1.00198 -0.155399 0.97925 0.130078 108 109 101
3.62208 -7.64939 0.982676 0.363938 0.90953 -0.200762 62 64 62
3.66536 -7.65504 1.00307 0.425213 0.882012 0.203097 55 59 61
3.67836 -7.67636 0.981729 0.318161 0.922205 -0.219798 65 68 67
3.71701 -7.67608 1.0008 0.269069 0.948221 -0.168754 80 83 81
3.68636 -7.66702 1.01741 0.325523 0.924292 -0.199297 59 63 64
3.71058 -7.67167 1.00636 0.543433 0.781753 -0.305846 74 77 76
3.71557 -7.68449 0.986539 -0.415431 0.896036 0.15664 71 73 72
3.75125 -7.69097 1.02375 -0.146782 0.937155 -0.316537 131 133 125
3.74602 -7.6778 0.98544 -0.0775656 0.99687 -0.0152693 94 96 93
3.7452 -7.67778 0.986256 0.530669 0.846079 0.0504023 94 96 93
3.78266 -7.68692 1.00395 -0.0633488 0.978266 -0.197438 136 137 130
3.8129 -7.68216 1.02249 -0.0765489 0.997012 0.0103175 98 100 92
3.84946 -7.66458 0.990809 -0.24397 0.956456 0.160222 103 105 96
3.81128 -7.67019 0.984577 -0.265879 0.95952 0.0928944 134 136 128
3.88294 -7.65954 1.01526 -0.382416 0.865501 0.323521 116 117 110
3.8847 -7.65072 0.977566 -0.311308 0.922748 0.227208 121 123 113
3.95747 -7.60619 0.988726 -0.636049 0.744284 0.203674 68 73 71
3.92851 -7.63603 1.00702 -0.52413 0.817618 0.238306 119 121 114
4.02834 -7.60187 0.99953 -0.303772 0.878809 0.367991 114 116 111
4.06568 -7.59293 0.986673 0.123871 0.976902 0.174119 101 102 95
4.09593 -7.59223 1.00298 0.0641231 0.997282 0.0362914 72 75 71
4.09765 -7.59061 0.966379 0.00739545 0.99644 0.083985 93 94 87
4.15937 -7.60038 1.0013 0.15455 0.987983 -0.00223209 105 107 100
4.13271 -7.59795 0.986588 0.101241 0.993622 0.0496585 78 80 75
4.1653 -7.59953 0.967217 0.151846 0.986254 0.0651578 111 112 104
4.20862 -7.61303 0.984601 0.324441 0.929533 0.175233 123 124 113
4.24372 -7.62491 1.0047 0.319578 0.937592 0.137082 105 105 95
4.30654 -7.63986 1.00336 0.341974 0.934123 0.102318 67 69 66
4.27424 -7.62962 0.984368 0.25436 0.966356 -0.0381812 81 82 76
4.369 -7.65435 1.01854 0.0938168 0.989603 -0.109013 80 82 78
4.3431 -7.65909 0.9859 0.270203 0.962646 0.0174244 92 93 88
4.33167 -7.64162 0.996489 0.37302 0.895911 -0.241245 74 76 72
4.41168 -7.65963 1.02542 -0.0719357 0.995882 -0.0551679 81 84 81
4.41484 -7.67015 0.98924 -0.290593 0.942374 0.165791 128 129 121
4.37981 -7.66595 1.00717 -0.0764691 0.996382 -0.0370955 102 104 98
4.4463 -7.66045 1.00638 -0.410586 0.910604 0.0471151 80 83 81
4.47728 -7.64734 1.02338 -0.280573 0.959464 -0.0265869 89 92 91
4.47418 -7.63642 0.985286 -0.411293 0.891853 0.188243 81 83 81
4.52239 -7.63252 0.986773 -0.228152 0.966318 0.119064 104 105 98
4.55777 -7.62702 1.00751 -0.154993 0.986777 0.0474112 140 140 131
4.55204 -7.61539 0.981441 -0.126046 0.968651 0.214075 126 126 115
4.55095 -7.61263 0.980819 -0.162404 0.96644 0.199045 125 125 115
4.55095 -7.61263 0.980819 -0.162404 0.96644 0.199045 125 126 115
4.59193 -7.62983 0.990636 -0.000641316 0.999984 0.00557159 133 132 121
4.62294 -7.62646 1.00866 0.0509754 0.997058 0.0572531 108 109 98
4.65436 -7.62608 0.989046 0.0261777 0.995649 -0.0894305 81 82 75
4.68841 -7.62739 1.00861 0.0997586 0.995009 0.00232454 71 73 70
4.72628 -7.63112 0.991658 0.199734 0.978844 0.0443834 115 116 108
4.71914 -7.62561 0.988408 0.155035 0.981237 -0.11462 112 113 105
4.76035 -7.64105 1.01136 -0.0792538 0.996024 -0.0406874 117 118 111
4.78849 -7.62868 0.989964 0.0412215 0.961094 0.273127 132 133 123
4.78935 -7.64575 1.02669 -0.0650201 0.997738 -0.0170805 89 91 87
4.82461 -7.64013 1.0096 -0.197632 0.967419 0.158248 82 84 80
4.86049 -7.63817 0.99246 -0.132056 0.985169 0.109555 76 78 73
4.86226 -7.63882 0.993588 -0.127939 0.981036 0.145604 76 78 73
4.89488 -7.63867 1.01269 -0.00824298 0.997778 -0.066109 100 101 95
4.88927 -7.63509 1.01001 -0.0149422 0.998933 -0.0437047 94 94 89
4.98346 -7.64237 1.01254 0.294822 0.954425 0.0463894 111 111 100
4.95829 -7.64408 1.01115 0.231548 0.972666 0.0174891 124 124 113
5.05277 -7.65717 1.01032 0.208478 0.951772 0.225091 69 70 66
5.01803 -7.65322 1.03184 0.12476 0.992174 0.00498188 111 112 103
5.05175 -7.6507 1.00849 0.227038 0.615972 -0.754343 65 67 63
5.08696 -7.66237 1.03014 0.271873 0.632516 -0.725264 64 66 64
5.08608 -7.66324 1.03021 0.2729 0.952143 0.137655 68 69 66
5.12181 -7.68142 1.01014 0.387584 0.90487 0.176038 100 101 94
5.11945 -7.66445 1.01073 0.22731 0.619187 -0.751623 97 99 92
5.15074 -7.68657 1.03246 0.207539 0.97771 -0.0317798 80 82 78
5.18762 -7.69339 1.01459 0.0454546 0.998479 0.031186 84 85 80
5.22277 -7.6945 1.03458 -0.0524867 0.998301 -0.025296 85 88 85
5.2513 -7.69136 1.01307 -0.0651915 0.994781 0.0784898 88 90 87
5.28535 -7.68681 1.03252 -0.176891 0.982949 -0.0502044 135 138 130
5.34283 -7.67846 1.03241 -0.192917 0.979883 0.0511155 108 110 101
5.31626 -7.67893 1.0123 -0.227154 0.972682 0.0478687 137 139 129
5.37876 -7.67308 1.01536 -0.191436 0.980123 0.0520719 121 122 114
5.41313 -7.66258 1.0374 -0.195158 0.97454 0.110386 124 126 119
5.41159 -7.65169 0.999234 -0.240754 0.957768 0.15722 81 83 79
5.44252 -7.64649 1.01798 -0.290198 0.93577 0.200299 70 74 72
5.44428 -7.64732 1.01909 -0.246558 0.951987 0.181467 69 73 72
5.44069 -7.64692 1.01554 -0.336608 0.916392 0.216611 70 74 72
5.44366 -7.64651 1.01844 -0.27424 0.941089 0.197849 69 73 71
5.47506 -7.64999 1.03524 0.336439 0.910412 0.240745 65 69 68
5.47485 -7.62964 1.00064 0.329545 0.908189 0.258056 82 86 82
5.47607 -7.63061 1.00101 0.313661 0.901798 0.297284 82 86 82
5.47765 -7.63706 1.00134 0.352825 0.915863 0.191597 82 86 82
5.47437 -7.63434 0.998585 0.364451 0.918363 0.154223 83 87 83
5.51359 -7.65642 1.00642 0.14928 0.979744 0.133482 105 107 101
5.51812 -7.66019 1.01049 0.101703 0.993626 0.0486243 102 104 98
5.51832 -7.65998 1.00892 0.0998884 0.994958 -0.00896543 104 106 100
5.54916 -7.66284 1.02863 0.19967 0.977245 0.0715793 80 82 79
5.54972 -7.66265 1.02949 0.199247 0.977856 0.0640198 79 81 78
5.54875 -7.66355 1.02732 0.18186 0.981897 0.0529666 82 84 80
5.57831 -7.66716 1.00481 0.275896 0.960889 -0.0239432 84 86 80
5.57997 -7.66763 1.00776 0.275557 0.961259 -0.00701101 82 84 78
5.57991 -7.66697 1.00614 0.27519 0.961206 -0.0188069 83 85 78
5.60895 -7.67269 1.02359 0.284302 0.948457 -0.140006 79 80 76
5.60852 -7.6723 1.02382 0.282596 0.95077 -0.127186 79 80 76
5.61797 -7.67575 1.03196 0.235682 0.968475 -0.0806855 88 89 85
5.64563 -7.67874 1.0464 0.242261 0.965566 -0.0948313 117 119 111
5.68128 -7.69054 1.02661 0.235188 0.971889 -0.0109003 117 119 110
5.72969 -7.69955 1.02902 0.248781 0.966223 0.0672329 100 102 91
5.80063 -7.71452 1.02748 -0.537136 0.75288 0.380338 99 101 93
5.84622 -7.7179 1.02705 0.304866 0.91398 0.267766 65 67 64
5.96204 -7.76392 1.04717 -0.133206 0.988475 0.0719317 79 83 80
5.9224 -7.74719 1.02752 0.29863 0.908618 0.291947 71 74 70
6.00036 -7.77742 1.06707 -0.169173 0.960728 0.219961 123 125 118
6.12149 -7.75126 1.04523 -0.2915 0.906304 0.306009 98 101 93
6.15643 -7.72757 1.04508 -0.760946 0.641131 0.0995613 141 143 134
6.18925 -7.68981 1.02897 -0.695526 0.709005 -0.116429 79 83 81
6.22356 -7.67796 1.04541 -0.497157 0.849269 -0.177702 62 68 68
6.4595 -7.82267 1.06238 0.0869681 0.989995 0.111115 41 40 34
6.59624 -7.74828 1.05759 -0.500696 0.390429 -0.772573 82 78 60
6.6073 -7.76801 1.07568 -0.184907 0.484837 -0.854835 82 77 58
0.367828 -7.35054 0.91728 0.641545 0.487504 -0.59225 108 109 104
0.454868 -7.38469 0.909973 0.122642 0.483907 -0.866483 83 84 80
0.484686 -7.36498 0.926169 0.271142 0.933864 -0.233194 108 109 104
0.575387 -7.36653 0.939649 -0.27779 0.328385 -0.902771 102 103 97
0.551207 -7.34473 0.917557 0.680802 0.467757 -0.563659 106 107 101
0.602497 -7.38174 0.929155 0.459847 0.422856 -0.780854 86 86 80
0.650925 -7.37112 0.922234 0.0908174 0.491097 -0.866358 96 97 89
0.734186 -7.35829 0.938818 0.664475 0.481203 -0.571766 129 130 123
0.734118 -7.35901 0.938847 0.664899 0.481413 -0.571096 129 130 123
0.877184 -7.37458 0.938044 0.681687 0.54042 -0.493203 144 145 139
0.876827 -7.38041 0.912897 0.19612 0.476863 -0.856819 122 123 117
0.876827 -7.38041 0.912897 0.19612 0.476863 -0.856819 122 123 117
0.898092 -7.42414 0.941915 -0.156365 0.362818 -0.918647 128 129 123
0.952214 -7.28479 0.909274 0.495768 0.582186 -0.644417 111 111 106
0.930755 -7.37421 0.923793 -0.176907 0.48098 -0.858698 114 115 109
0.952214 -7.28479 0.909274 0.495768 0.582186 -0.644417 111 111 106
0.946818 -7.37683 0.931481 -0.314672 0.34373 -0.884778 114 115 109
0.99978 -7.36834 0.93938 0.160389 0.491838 -0.855787 138 138 130
1.0559 -7.44288 0.941503 0.20479 0.482642 -0.851538 140 140 133
1.11007 -7.4382 0.953461 -0.24421 0.476084 -0.844811 144 145 137
1.11106 -7.44138 0.953517 0.219392 0.475934 -0.851677 147 147 139
1.14483 -7.45318 0.935059 -0.0469663 0.468931 -0.881985 141 141 135
1.1822 -7.38313 0.951252 -0.137164 0.434509 -0.890162 163 162 156
1.20065 -7.42067 0.946793 -0.250533 0.31936 -0.913916 155 155 149
1.25617 -7.43377 0.942732 -0.118338 0.468243 -0.87564 155 155 149
1.28677 -7.44372 0.944823 -0.252052 0.465987 -0.848131 156 156 149
1.32712 -7.44005 0.944949 0.233961 0.476695 -0.847363 160 160 153
1.37257 -7.46945 0.96173 0.03972 0.517152 -0.854972 163 162 155
1.34251 -7.44456 0.960191 -0.24398 0.46181 -0.852764 167 166 159
1.37198 -7.46064 0.957626 0.475244 0.460546 -0.749694 162 161 154
1.39276 -7.49356 0.965773 -0.435729 0.529603 -0.727778 164 163 156
1.43009 -7.43938 0.947147 0.08984 0.360895 -0.928269 162 161 154
1.41675 -7.39691 0.955431 0.474821 0.593048 -0.650261 166 164 155
1.48199 -7.38909 0.945014 0.490793 0.41485 -0.766173 162 161 153
1.51673 -7.38447 0.938223 0.534593 0.728869 -0.427739 160 158 151
1.55096 -7.42872 0.942542 -0.030915 0.510262 -0.859463 162 160 151
1.62598 -7.45662 0.955856 0.324655 0.57083 -0.754156 150 149 140
1.59715 -7.405 0.95492 -0.232057 0.485433 -0.842914 157 156 145
1.62988 -7.47484 0.949126 0.22516 0.733713 -0.641069 153 152 143
1.68692 -7.48618 0.979543 0.81244 0.560443 -0.160764 124 124 115
1.71982 -7.5058 0.979766 0.822258 0.546343 -0.159376 84 83 75
1.7634 -7.55462 0.983382 0.665106 0.740223 -0.0985064 66 65 57
1.79444 -7.57105 0.980423 0.143143 0.984472 -0.101616 110 109 100
1.82696 -7.57666 1.00031 -0.153493 0.987806 -0.0260542 125 125 115
1.87028 -7.57144 0.971111 -0.275184 0.957606 0.0852319 94 95 90
1.90309 -7.56634 0.99196 -0.063263 0.990833 0.119364 118 119 113
1.93572 -7.5631 0.973827 -0.00678444 0.992637 0.12094 122 122 114
2.00533 -7.56568 0.990469 -0.0625928 0.990086 0.125747 133 135 126
1.97298 -7.56604 0.971764 0.06413 0.988051 0.140149 112 113 103
1.97238 -7.56698 1.00804 0.0730756 0.997002 -0.0254333 88 90 84
2.0384 -7.5643 0.972619 -0.0218811 0.985792 0.166541 85 86 81
2.07116 -7.56578 0.992595 -0.0119451 0.997266 0.0729267 107 108 100
2.10264 -7.56793 1.01019 0.0312084 0.995175 0.0930197 104 105 97
2.13398 -7.5681 0.99 0.128905 0.989635 0.0632871 115 115 107
2.16577 -7.56724 1.00648 0.0364223 0.997585 0.0591468 110 111 102
2.1973 -7.56692 0.988856 -0.131753 0.985761 -0.104478 132 133 126
2.19788 -7.56696 0.987743 -0.29885 0.95403 0.0226939 130 132 124
2.22969 -7.56189 1.00736 -0.251977 0.959152 0.128585 116 117 109
2.23041 -7.56071 1.00812 -0.168459 0.984412 0.0505462 116 117 109
2.26295 -7.55797 0.991084 -0.195678 0.975606 0.0995114 104 104 98
2.29562 -7.55614 1.01123 0.0371363 0.985347 0.166467 125 126 119
2.32574 -7.5614 1.00216 0.0693888 0.988629 0.133409 113 114 106
2.36015 -7.55511 0.983121 0.109061 0.983232 0.146152 114 114 105
2.39077 -7.56684 1.00245 0.25638 0.95158 0.169602 113 114 107
2.42248 -7.56048 0.981352 0.153836 0.987956 0.0166471 67 69 66
2.45541 -7.56965 1.00047 0.185855 0.981765 0.0399502 98 99 94
2.49245 -7.57904 0.98504 0.137504 0.989413 0.0464248 116 117 111
2.49273 -7.57927 0.98653 0.228669 0.971773 0.0580296 118 119 113
2.52418 -7.58201 1.00286 0.158617 0.985892 0.0534641 136 135 127
2.55436 -7.59315 1.02386 0.253361 0.963779 0.0832986 134 134 124
2.55703 -7.58649 0.98647 0.118706 0.983722 -0.134906 106 106 101
2.55587 -7.58622 0.984387 0.109776 0.99023 -0.0859904 104 105 100
2.58856 -7.59014 1.00315 0.051953 0.985087 -0.164024 83 85 80
2.55759 -7.58471 1.02172 0.121451 0.991697 0.0422613 137 136 126
2.62167 -7.58994 1.02248 0.211742 0.940715 -0.264992 80 81 76
2.65492 -7.60461 1.00471 0.241891 0.941576 -0.234359 96 97 91
2.65455 -7.60388 1.00629 0.219617 0.96025 -0.172306 97 98 92
2.68578 -7.60051 1.02517 0.234834 0.968609 -0.0815461 130 130 121
2.73516 -7.6165 0.997626 0.0862545 0.995161 -0.0470556 132 133 122
2.79912 -7.62894 0.997261 0.16234 0.983758 0.0765875 74 76 72
2.76679 -7.62285 1.01685 0.112169 0.993039 0.0359547 96 97 89
2.82092 -7.61977 1.03464 0.197165 0.979275 -0.0463399 85 86 82
2.85346 -7.62604 1.01453 0.246283 0.964191 0.0983926 93 95 92
2.88348 -7.62729 1.03065 0.049631 0.998749 -0.00607659 137 137 129
2.94028 -7.63672 1.01439 0.505364 0.795761 0.333723 88 91 88
2.9737 -7.63729 1.03434 0.499604 0.799351 0.333818 72 75 74
3.00598 -7.63504 1.0164 -0.218775 0.935229 0.278361 79 82 80
3.03877 -7.63788 1.03743 -0.327577 0.938792 0.106597 105 107 100
3.03704 -7.59541 0.996139 -0.18422 0.960835 0.207025 135 137 130
3.06954 -7.59253 1.01602 -0.268231 0.927844 0.259148 121 122 114
3.10268 -7.58199 0.999779 -0.229624 0.953541 0.19502 108 109 102
3.13668 -7.58678 1.02777 -0.0884134 0.991049 0.10003 130 130 123
3.23116 -7.60137 1.02212 0.352624 0.918402 -0.179425 69 71 70
3.24782 -7.60186 1.01521 0.181234 0.981586 -0.0603685 68 71 71
3.28041 -7.60382 1.03464 0.583922 0.808413 -0.0741838 85 88 86
3.25865 -7.6033 1.00153 0.140053 0.989798 -0.0261745 62 65 66
3.31636 -7.60311 1.035 0.135827 0.99051 -0.0210166 64 68 67
3.32993 -7.63747 1.00735 0.0965082 0.963763 -0.248693 68 72 71
3.40785 -7.64349 1.02169 0.399614 0.806108 0.436462 139 139 130
3.45315 -7.64134 1.04068 0.0149786 0.999055 -0.0408029 108 109 100
3.45296 -7.64161 1.0404 0.00626098 0.998971 -0.0449155 108 108 100
3.48691 -7.64394 1.02148 0.0407025 0.998796 -0.0273897 97 97 91
3.51938 -7.63606 1.03995 0.0399784 0.994005 -0.101765 136 136 127
3.58589 -7.63952 1.03999 -0.00270757 0.999358 -0.0357261 81 83 78
3.58866 -7.64089 1.03952 -0.0337859 0.998909 -0.0322447 80 82 77
3.55425 -7.64651 1.02107 -0.0321503 0.992695 -0.116286 135 135 126
3.55566 -7.64258 1.0205 0.0434545 0.997504 -0.055661 135 135 125
3.62101 -7.64026 1.02056 0.0794729 0.990595 -0.111377 65 67 66
3.61868 -7.64094 1.02106 0.0678743 0.988317 -0.136465 67 69 67
3.65512 -7.64432 1.03966 0.106474 0.974473 -0.197651 61 64 66
3.71707 -7.66605 1.0393 0.343603 0.922763 -0.174486 76 79 77
3.71657 -7.66664 1.04003 0.314198 0.932389 -0.178693 75 78 76
3.68484 -7.6647 1.01842 0.315654 0.936642 -0.151867 59 63 64
3.74895 -7.67108 1.06009 0.303014 0.94573 -0.117376 96 98 93
3.74817 -7.67067 1.06057 0.295139 0.949852 -0.103314 94 96 91
3.78022 -7.68062 1.04219 0.14806 0.983953 0.0995707 134 134 125
3.81339 -7.68807 1.06088 0.0973991 0.930287 0.353665 115 116 108
3.84778 -7.67218 1.0296 -0.236621 0.951111 0.198492 77 78 73
3.81441 -7.67547 1.02223 -0.148059 0.984816 0.0906442 95 97 89
3.8832 -7.67484 1.05477 -0.426335 0.850722 0.307427 119 120 113
3.92932 -7.65028 1.04648 -0.443976 0.885868 0.134623 148 148 139
3.96088 -7.62854 1.03001 -0.37078 0.889448 0.267217 91 95 92
3.99263 -7.60752 1.0137 -0.347134 0.912701 0.215579 70 75 75
4.02622 -7.60453 1.03672 -0.146684 0.89683 0.417348 66 71 72
4.06293 -7.59142 1.02255 0.059222 0.996954 0.0507391 72 75 72
4.09384 -7.58914 1.0401 0.134075 0.97021 -0.201783 90 93 90
4.12842 -7.59479 1.02169 0.149277 0.985269 -0.0834355 97 99 95
4.15834 -7.60235 1.03953 0.273885 0.961481 0.0232683 125 126 118
4.18999 -7.6085 1.01817 0.302619 0.94329 0.13648 122 122 113
4.22222 -7.62062 1.03641 0.345972 0.93241 0.104479 93 94 84
4.2761 -7.63667 1.02616 0.376915 0.923597 0.0700195 109 111 102
4.30587 -7.64239 1.04295 0.335249 0.935676 0.110086 96 97 91
4.30268 -7.63632 1.05763 0.301902 0.945497 0.122031 110 112 103
4.36758 -7.64554 1.05556 0.189866 0.967064 0.169525 64 68 70
4.34412 -7.65695 1.04446 0.337113 0.910898 0.237948 69 71 69
4.33382 -7.6433 1.03587 0.351747 0.935118 0.0427611 69 71 69
4.40394 -7.65808 1.03881 0.0405439 0.990654 -0.130237 71 76 75
4.44829 -7.65814 1.04542 -0.192878 0.967533 -0.163333 84 89 87
4.5269 -7.63975 1.02831 -0.326585 0.944122 -0.0444588 137 139 132
4.55927 -7.63311 1.04728 -0.175268 0.984502 -0.00616679 105 107 99
4.59108 -7.62756 1.02807 -0.0471584 0.998793 0.0137166 111 112 102
4.62312 -7.62898 1.04651 0.0263937 0.99842 0.0495977 125 126 117
4.65417 -7.6223 1.02682 0.0152315 0.993687 0.111147 101 102 95
4.69006 -7.63077 1.04715 0.121507 0.987823 0.0971726 84 85 80
4.6822 -7.61254 1.04323 -0.0603251 0.991083 0.118806 84 86 81
4.71706 -7.62075 1.02535 0.150702 0.987449 -0.0472568 70 73 71
4.71767 -7.62387 1.06282 0.18082 0.983391 0.015695 69 71 69
4.75125 -7.6276 1.0455 0.188245 0.975021 0.117885 68 72 72
4.82106 -7.63979 1.04633 -0.0221048 0.983542 -0.179321 78 82 79
4.85996 -7.64087 1.03099 -0.0425717 0.989402 -0.13882 89 91 87
4.85042 -7.6282 1.0632 -0.0242244 0.965165 -0.260519 121 122 117
4.89082 -7.63261 1.04867 0.0929658 0.98014 -0.175165 132 133 125
4.92586 -7.63466 1.0691 0.139159 0.988343 -0.0617469 95 95 87
4.92317 -7.63666 1.02932 0.0905779 0.994744 -0.0477589 129 129 120
4.98361 -7.64341 1.05136 0.360099 0.929486 0.0799032 104 105 95
5.05669 -7.66531 1.05429 0.210298 0.970461 0.118236 99 99 92
5.02194 -7.65908 1.07471 0.226962 0.963171 0.144185 122 122 112
5.08924 -7.67469 1.07247 0.28489 0.95127 0.117997 77 78 75
5.15094 -7.6837 1.07209 0.225116 0.971861 -0.0693481 64 69 71
5.15197 -7.68428 1.07109 0.217373 0.975176 -0.0422028 65 69 71
5.18916 -7.69254 1.05381 0.00154012 0.995878 -0.0906918 78 81 79
5.22136 -7.69112 1.07229 -0.0302392 0.987382 -0.155443 121 123 117
5.25393 -7.68887 1.05282 -0.021726 0.992312 -0.12184 133 135 128
5.22126 -7.68822 1.0724 -0.0122821 0.98524 -0.170736 122 125 118
5.34734 -7.67796 1.07496 -0.20846 0.976619 0.0525284 84 87 82
5.31813 -7.6801 1.05141 -0.235307 0.971138 0.0390129 99 101 94
5.37549 -7.6719 1.05277 -0.259638 0.960051 0.104352 123 125 117
5.41172 -7.66336 1.07497 -0.17031 0.982194 0.0793002 144 145 136
5.47668 -7.65868 1.07373 -0.00338444 0.996961 0.077828 79 81 79
5.44355 -7.65482 1.05598 -0.150703 0.983082 0.104109 105 108 102
5.44258 -7.64455 1.05742 -0.301097 0.95152 0.0628561 104 106 101
5.44138 -7.65441 1.05367 -0.177072 0.977089 0.118077 106 108 102
5.54897 -7.66703 1.07569 0.184006 0.982423 0.0314192 63 68 68
5.57904 -7.66191 1.04803 0.285905 0.947837 -0.140935 79 81 78
5.58004 -7.66392 1.04879 0.275201 0.958588 -0.0733066 79 82 78
5.58142 -7.6608 1.05113 0.275135 0.940287 -0.2004 82 84 80
5.61115 -7.66869 1.06695 0.236516 0.955631 -0.175585 113 115 108
5.61135 -7.66906 1.06658 0.234471 0.957505 -0.16795 113 114 108
5.64557 -7.67871 1.04686 0.259775 0.95886 -0.114473 117 119 111
5.7699 -7.71856 1.07331 0.265006 0.960378 -0.0862851 109 110 100
5.8297 -7.72004 1.06382 -0.0626135 0.983632 0.168958 99 101 95
5.89937 -7.73342 1.06937 0.226165 0.97382 0.0229054 60 65 66
5.92713 -7.76832 1.10855 0.271261 0.962026 -0.0303739 65 68 68
5.92229 -7.74939 1.06735 0.196949 0.972482 -0.124459 66 70 70
5.96548 -7.77943 1.08713 0.00262947 0.994861 0.101217 73 77 74
5.9991 -7.78932 1.1092 -0.114191 0.990086 0.0817962 88 91 86
6.00187 -7.78776 1.10757 -0.1751 0.983344 0.0487302 94 97 91
6.03075 -7.77597 1.08984 -0.230976 0.946171 0.22674 135 137 127
6.11311 -7.74079 1.08081 -0.456861 0.886844 0.0691707 89 92 87
6.16906 -7.71492 1.08433 -0.73533 0.647903 -0.198774 145 146 138
6.19766 -7.67077 1.08448 -0.71614 0.687281 -0.121604 93 96 92
6.48868 -7.84121 1.12743 -0.103389 0.970711 0.216865 51 53 48
6.46707 -7.8484 1.10494 0.084502 0.958435 0.272511 63 63 56
6.57605 -7.80812 1.09093 -0.966723 0.209399 0.146964 89 87 69
0.368869 -7.2829 0.943732 -0.211074 0.367347 -0.905817 130 130 125
0.399787 -7.31809 0.928688 -0.340674 0.470295 -0.814103 100 100 97
0.397777 -7.3419 0.940466 -0.0936819 0.359425 -0.928459 104 105 100
0.411231 -7.26329 0.947531 -0.0523214 0.324298 -0.944507 134 135 129
0.428776 -7.30436 0.936463 -0.0190161 0.508618 -0.860782 115 115 111
0.44776 -7.30994 0.935787 0.0537015 0.462566 -0.884957 119 119 115
0.48119 -7.26191 0.938751 -0.277627 0.754952 -0.594114 137 137 132
0.517052 -7.29339 0.923184 -0.037252 0.951745 -0.304621 125 126 118
0.597663 -7.33413 0.956943 0.440284 0.443397 -0.780736 140 140 134
0.583501 -7.36224 0.966018 0.184181 0.606611 -0.773369 148 148 141
0.671634 -7.28384 0.955533 -0.107235 0.29107 -0.950673 146 146 140
0.697495 -7.34055 0.939905 0.116968 0.505798 -0.854685 129 129 121
0.745353 -7.29487 0.956878 -0.137727 0.579013 -0.803602 154 154 146
0.780453 -7.27691 0.933735 -0.125245 0.52411 -0.842391 138 138 131
0.782231 -7.2898 0.934741 -0.505379 0.58526 -0.634084 136 137 130
0.782231 -7.2898 0.934741 -0.505379 0.58526 -0.634084 136 137 130
0.782231 -7.2898 0.934741 -0.505379 0.58526 -0.634084 136 137 130
0.787425 -7.30087 0.937796 -0.182377 0.532679 -0.826433 138 138 132
0.798096 -7.24489 0.937855 -0.0816476 0.891669 -0.445263 151 152 144
0.83533 -7.28942 0.92732 0.600278 0.722179 -0.34369 139 139 132
0.855524 -7.27026 0.931162 0.159923 0.492542 -0.855469 151 151 145
0.908346 -7.27076 0.941064 0.190729 0.482809 -0.854704 162 162 155
0.920845 -7.20812 0.930625 0.23995 0.483863 -0.841606 156 156 149
0.997207 -7.31787 0.967369 0.524996 0.496441 -0.691321 163 163 155
1.03274 -7.30282 0.963112 0.514587 0.496321 -0.699189 160 160 149
1.05827 -7.29408 0.93996 0.279252 0.460825 -0.842412 148 148 140
1.12179 -7.31617 0.961603 0.404173 0.450384 -0.796115 157 156 148
1.09691 -7.22308 0.949253 -0.272507 0.477916 -0.835066 160 158 149
1.13094 -7.30964 0.94471 -0.0952123 0.421624 -0.901758 160 159 151
1.22993 -7.36173 0.960933 0.446896 0.330226 -0.831405 164 163 158
1.29126 -7.38411 0.956918 0.338992 0.460657 -0.820293 166 166 158
1.27112 -7.26448 0.962467 0.683024 0.406268 -0.60698 165 164 157
1.34673 -7.26879 0.948019 0.504509 0.414283 -0.757522 169 168 160
1.33953 -7.34188 0.960986 0.38233 0.439885 -0.812604 173 171 163
1.37289 -7.32713 0.94705 0.510219 0.590413 -0.625371 166 165 156
1.43684 -7.29347 0.971084 0.489415 0.524771 -0.696483 172 170 161
1.40876 -7.31475 0.97625 0.553458 0.506895 -0.660864 171 170 160
1.47662 -7.32921 0.970671 0.0610753 0.462247 -0.884646 165 163 155
1.50888 -7.36043 0.971833 -0.104095 0.411889 -0.905269 162 160 151
1.48625 -7.33332 0.973701 0.0582244 0.532858 -0.844199 163 161 152
1.54328 -7.37248 0.968792 0.167804 0.429242 -0.887464 156 154 146
1.59322 -7.34609 0.986608 0.353667 0.641098 -0.681111 149 148 139
1.62571 -7.40652 0.986839 -0.305137 0.454364 -0.836926 157 155 144
1.67263 -7.47895 1.02134 0.696841 0.667425 -0.262596 130 129 119
1.79533 -7.57737 1.02032 0.158908 0.980278 -0.117491 76 75 68
1.85936 -7.57178 1.01922 -0.207426 0.978014 0.021512 129 129 120
1.82816 -7.57858 1.03973 0.00972557 0.999596 -0.0267123 94 93 84
1.89223 -7.56977 1.03874 -0.0814552 0.993345 0.0814233 119 119 113
1.8917 -7.57077 1.03736 -0.100038 0.992476 0.070596 118 118 112
1.93584 -7.56836 1.01132 -0.0137444 0.990754 0.134971 72 74 70
1.98259 -7.57214 1.04295 0.103423 0.993753 -0.0419478 99 101 97
2.03917 -7.56929 1.01162 -0.0256769 0.981583 0.189301 131 132 122
2.07129 -7.56923 1.02997 -0.0563615 0.994182 0.0917898 117 117 108
2.13478 -7.56946 1.02839 0.0625231 0.990993 0.118424 72 73 67
2.19752 -7.56452 1.02656 -0.0140731 0.997986 0.0618533 125 126 117
2.16517 -7.56567 1.04502 0.0679286 0.995648 -0.0637992 84 86 80
2.22933 -7.56198 1.04508 -0.119409 0.992539 0.0246511 139 139 130
2.26243 -7.55956 1.02837 -0.167715 0.977734 0.126126 107 108 100
2.35915 -7.5583 1.02316 -0.024457 0.947714 0.318183 105 107 100
2.39199 -7.56873 1.04078 0.0753819 0.99517 -0.0628836 133 135 126
2.42616 -7.56679 1.02038 0.192674 0.981022 -0.021757 100 102 93
2.45927 -7.57628 1.04144 0.00815125 0.999919 -0.00977676 108 108 99
2.49217 -7.57847 1.02236 0.138988 0.989501 0.0396299 126 125 117
2.55804 -7.5843 1.05963 -0.0514144 0.997258 -0.0532254 101 102 94
2.58796 -7.59947 1.04022 0.110197 0.984115 -0.139189 136 136 127
2.65492 -7.59599 1.04398 0.204465 0.954516 -0.217011 113 114 106
2.68727 -7.59785 1.06403 0.286102 0.953647 -0.0932905 88 88 83
2.73427 -7.6181 1.03612 0.187991 0.969259 0.158733 110 111 101
2.73425 -7.62442 1.07425 0.545778 0.789735 0.280081 83 84 79
2.78915 -7.61524 1.05425 0.0528966 0.998555 -0.00943913 116 117 109
2.82022 -7.61536 1.07225 0.142825 0.972938 -0.18164 109 110 99
2.85222 -7.6255 1.05191 0.193776 0.974304 -0.114819 128 128 120
2.88337 -7.62839 1.06876 0.0795588 0.995855 -0.0440728 108 108 100
2.91671 -7.63082 1.05014 0.026797 0.999458 0.0191333 137 137 127
2.97718 -7.63358 1.07518 -0.0984516 0.995106 0.00843179 131 132 125
3.00787 -7.642 1.05599 -0.208327 0.957581 0.199096 88 90 86
3.07102 -7.62651 1.05806 -0.333782 0.929666 0.155921 143 144 134
3.08651 -7.60185 1.05821 -0.431003 0.841322 0.326212 143 144 134
3.13662 -7.5896 1.06574 -0.195038 0.980603 0.0194514 109 110 103
3.16791 -7.58671 1.0448 0.153424 0.984891 0.0803224 77 79 74
3.20299 -7.59625 1.04243 0.381092 0.912205 -0.150501 67 69 66
3.21744 -7.59533 1.03635 0.344892 0.936168 0.0681062 72 73 71
3.26114 -7.60326 1.04221 0.160301 0.986912 -0.017575 99 101 98
3.29973 -7.60936 1.072 0.460953 0.8221 -0.334177 126 127 119
3.39248 -7.61352 1.04584 0.153683 0.986332 0.0594119 101 103 98
3.45488 -7.6369 1.07776 -0.0933761 0.995588 0.00920983 134 134 123
3.42669 -7.61809 1.06651 0.125545 0.987694 0.0932728 114 115 106
3.48527 -7.62727 1.05867 0.0431723 0.993951 -0.100984 134 134 124
3.52082 -7.63594 1.0774 0.161024 0.986488 0.0302191 103 104 97
3.58662 -7.63764 1.07773 -0.0648199 0.994432 -0.0830898 75 77 75
3.58866 -7.63761 1.07747 -0.0721906 0.99386 -0.0838551 76 77 76
3.5543 -7.64539 1.05912 0.130714 0.979309 -0.154494 92 93 87
3.62327 -7.64726 1.05868 0.0183654 0.996181 -0.0853604 74 76 75
3.62103 -7.64633 1.05893 -0.0177432 0.99009 -0.139311 73 76 75
3.65434 -7.64241 1.07753 0.0968723 0.994556 0.0383902 106 107 104
3.65198 -7.64183 1.07781 0.118224 0.992833 0.0174699 107 109 105
3.71611 -7.65707 1.07944 0.376212 0.924958 -0.0540199 65 66 65
3.7161 -7.65699 1.07835 0.383318 0.92234 -0.0485388 64 66 65
3.71524 -7.65665 1.07895 0.387751 0.920531 -0.0476562 64 66 65
3.6852 -7.64953 1.05778 0.348444 0.937326 -0.00252622 63 66 66
3.6845 -7.64961 1.05837 0.345776 0.938051 -0.022344 64 66 66
3.74842 -7.66818 1.09921 0.31758 0.948103 -0.0156189 69 70 68
3.7807 -7.67791 1.08126 0.290544 0.95004 -0.114057 111 112 106
3.80994 -7.68848 1.09901 0.187964 0.982172 -0.00289209 115 116 107
3.84669 -7.68201 1.06896 -0.189222 0.960953 0.201904 104 105 97
3.88169 -7.68464 1.09465 -0.327345 0.933428 0.146822 140 141 131
3.91709 -7.67073 1.08141 -0.478315 0.817042 0.321959 130 131 123
3.96071 -7.63971 1.06874 -0.529775 0.781888 0.328618 92 95 91
3.99292 -7.62009 1.05275 -0.215258 0.896471 0.387304 65 70 71
4.02746 -7.61175 1.09012 -0.570255 0.801403 0.180452 67 71 74
4.04543 -7.60814 1.05751 0.149329 0.881841 0.447278 64 69 71
4.05878 -7.60865 1.05407 0.0701063 0.932364 0.354659 68 73 74
4.0958 -7.60911 1.07523 -0.148161 0.98235 -0.11418 105 109 105
4.12551 -7.59402 1.05969 0.151143 0.988508 -0.00279565 133 134 127
4.15745 -7.60395 1.07766 0.270128 0.956545 0.109787 114 115 106
4.19155 -7.61966 1.09756 0.299883 0.95159 0.0674238 92 93 84
4.19037 -7.61394 1.05765 0.311005 0.944288 0.107691 87 88 79
4.22383 -7.62801 1.07714 0.344536 0.934087 0.0936794 80 82 74
4.28243 -7.65438 1.09235 0.34089 0.938974 0.0460648 121 121 111
4.24807 -7.63795 1.07192 0.387902 0.921317 0.0265875 97 98 88
4.31398 -7.65809 1.06949 0.318397 0.93165 0.175077 106 107 99
4.32243 -7.66626 1.09526 0.34084 0.937843 -0.0654175 84 86 80
4.31439 -7.66642 1.10945 0.361202 0.932457 -0.00750685 83 84 79
4.42704 -7.67484 1.08378 -0.592334 0.70193 -0.395519 71 76 78
4.38997 -7.6741 1.10163 -0.0255623 0.983759 0.177665 70 74 77
4.45919 -7.66234 1.1044 -0.455882 0.889964 -0.0116316 86 90 88
4.49423 -7.64145 1.07993 -0.584888 0.798576 -0.142062 149 151 142
4.53284 -7.62901 1.08287 -0.289983 0.956247 -0.0387395 113 114 105
4.59107 -7.62878 1.10352 -0.02682 0.999594 0.0095731 103 104 97
4.55901 -7.63068 1.08497 -0.074931 0.995932 -0.0500502 87 88 82
4.62388 -7.63234 1.0846 0.0878271 0.995485 -0.035991 114 114 106
4.59158 -7.62891 1.06586 -0.0312116 0.998319 0.0488335 86 88 81
4.65417 -7.62651 1.06452 0.104186 0.980011 0.169481 132 132 122
4.6557 -7.63605 1.10327 0.204555 0.978854 -0.00127651 127 128 118
4.69036 -7.63524 1.0855 0.210187 0.962414 -0.171989 103 105 97
4.69113 -7.64054 1.08485 0.203438 0.979085 0.00226092 105 107 98
4.72208 -7.64337 1.10325 0.129192 0.99148 0.0166655 69 71 69
4.74652 -7.62928 1.07948 0.363482 0.839997 0.402847 61 65 66
4.78922 -7.65547 1.10567 -0.115594 0.98482 -0.129491 63 68 68
4.8137 -7.63465 1.08154 -0.0786274 0.964586 -0.251776 83 88 86
4.82994 -7.63285 1.09389 -0.190297 0.956039 -0.223105 100 103 99
4.84362 -7.62553 1.09936 -0.422534 0.799474 -0.426973 117 119 112
4.84325 -7.62498 1.09942 -0.331422 0.855701 -0.397411 117 119 112
4.88697 -7.6278 1.08316 0.0824446 0.986886 -0.138779 130 130 119
4.95421 -7.64478 1.07506 0.19535 0.976308 0.0930715 78 79 72
4.91967 -7.62928 1.09714 0.0822497 0.995751 0.0414174 100 100 90
4.98929 -7.65673 1.09652 0.295826 0.954603 -0.034923 99 99 91
5.02212 -7.66538 1.11473 0.328896 0.938649 -0.103762 120 121 112
5.05924 -7.67468 1.09531 0.326928 0.944522 0.0315787 109 109 101
5.05903 -7.67449 1.09625 0.326017 0.944678 0.0360181 108 109 101
5.02631 -7.66617 1.11707 0.305059 0.952282 -0.00992322 118 118 109
5.08988 -7.68077 1.11413 0.2592 0.965491 0.0253373 74 75 72
5.08937 -7.68003 1.11364 0.254516 0.966386 0.036323 74 75 72
5.08995 -7.68115 1.11514 0.266894 0.963696 0.00757283 74 75 72
5.12112 -7.68299 1.0906 0.129865 0.991003 -0.032369 62 65 66
5.12054 -7.68309 1.0916 0.130361 0.990757 -0.0375175 64 67 67
5.1204 -7.6831 1.09183 0.130228 0.990619 -0.0413997 64 67 67
5.11993 -7.68315 1.09267 0.120455 0.990858 -0.0607582 64 67 67
5.15539 -7.68873 1.11191 0.0967628 0.99082 0.0944051 66 70 70
5.15534 -7.68879 1.1122 0.0994984 0.990757 0.0921935 66 70 70
5.18852 -7.69283 1.1308 -0.0634813 0.99492 -0.0781255 70 74 73
5.19283 -7.69654 1.09383 -0.0361629 0.997534 -0.0601585 79 83 81
5.22882 -7.70344 1.11484 -0.250379 0.966453 0.057267 98 101 96
5.2183 -7.68583 1.10989 0.0586546 0.993986 -0.0924761 97 99 95
5.22105 -7.68556 1.11063 0.083298 0.993209 -0.0812233 99 102 97
5.2554 -7.68931 1.13072 -0.171182 0.984752 -0.0309884 112 114 107
5.25934 -7.69272 1.13239 -0.181435 0.981911 -0.0541446 113 115 109
5.25722 -7.68649 1.09391 0.0200253 0.986771 -0.160879 140 141 133
5.31307 -7.68817 1.13199 -0.16758 0.985272 0.0340021 117 119 109
5.34445 -7.68205 1.11215 -0.214894 0.97526 0.0518459 109 111 104
5.34711 -7.6815 1.11382 -0.234263 0.970186 0.0621208 113 115 108
5.31355 -7.68652 1.09357 -0.213922 0.976806 0.00933534 93 94 89
5.37764 -7.67609 1.09228 -0.245135 0.969354 0.0161896 119 122 114
5.38125 -7.67293 1.0948 -0.224998 0.974353 -0.00349838 125 128 120
5.41109 -7.6657 1.11284 -0.114858 0.989514 0.08758 127 129 121
5.47619 -7.65869 1.1118 -0.0859772 0.996079 0.0208375 76 78 76
5.44504 -7.66185 1.09454 -0.106507 0.994119 0.0195681 111 112 105
5.51109 -7.66024 1.09279 0.0168799 0.997945 -0.0618184 64 68 70
5.51414 -7.66329 1.09481 0.0496846 0.998408 -0.0266921 64 68 70
5.54824 -7.66596 1.1138 0.0823389 0.996507 0.0139387 65 69 69
5.54887 -7.66583 1.1148 0.104178 0.993458 0.046775 66 70 69
5.54926 -7.66633 1.11415 0.103837 0.994206 0.027796 65 69 69
5.58642 -7.67399 1.09543 0.264085 0.956916 0.120713 78 81 78
5.58401 -7.67507 1.09224 0.260564 0.957884 0.120683 77 81 78
5.58389 -7.67481 1.09235 0.250003 0.96191 0.110577 77 81 77
5.60866 -7.66466 1.10901 0.338231 0.939757 0.0495691 91 93 88
5.62066 -7.6798 1.11444 0.136218 0.982932 0.123647 93 95 89
5.60957 -7.66605 1.10946 0.339773 0.938787 0.0568641 91 93 88
5.65579 -7.68316 1.0937 0.220205 0.942017 0.253206 120 120 111
5.69721 -7.69887 1.1158 0.262903 0.96433 -0.0308221 103 104 94
5.73393 -7.7111 1.13837 0.261729 0.963392 0.0580909 120 121 110
5.76993 -7.71959 1.11631 0.255316 0.966635 0.0207334 116 118 108
5.80447 -7.72435 1.13762 0.265589 0.956758 -0.118644 75 77 71
5.96415 -7.77886 1.12897 0.142463 0.98563 0.0907663 64 67 65
5.99927 -7.78227 1.14938 -0.0147234 0.982411 -0.186151 71 75 71
6.03204 -7.77702 1.1292 -0.0422337 0.998497 0.0349173 105 108 101
6.03772 -7.77142 1.12882 -0.129009 0.9913 0.0260807 111 114 106
6.0328 -7.77428 1.12753 -0.11602 0.989751 0.0832571 108 111 103
6.08602 -7.76704 1.15576 -0.731199 0.519222 -0.442444 139 141 130
6.11351 -7.75164 1.11893 -0.449575 0.8911 0.0618422 130 132 124
6.1223 -7.74537 1.15578 -0.712793 0.670006 -0.20741 124 125 117
6.14978 -7.73186 1.11888 -0.716798 0.600382 -0.354601 136 138 131
6.18107 -7.69534 1.11892 -0.505748 0.795068 -0.334793 88 92 87
6.2197 -7.681 1.1189 -0.124058 0.941069 -0.314639 67 72 71
6.45531 -7.82872 1.18199 0.149086 0.883366 -0.444339 36 37 34
6.53285 -7.77734 1.13196 -0.958307 0.221863 0.180066 65 64 53
6.55526 -7.73098 1.13194 -0.955434 0.237185 0.175751 75 71 53
0.363876 -7.26298 0.954673 -0.170077 0.660464 -0.731342 143 143 137
0.402633 -7.25503 0.968338 0.410128 0.891378 -0.192975 153 153 146
0.446045 -7.24184 0.957197 -0.277122 0.741728 -0.610772 154 154 147
0.515319 -7.23317 0.946742 0.0234085 0.694225 -0.719378 155 155 148
0.552988 -7.22197 0.947976 0.6235 0.762465 -0.172903 158 158 151
0.602276 -7.24048 0.978222 0.401041 0.420012 -0.814098 166 166 160
0.612109 -7.24742 0.975818 0.482426 0.414547 -0.771632 163 163 156
0.637931 -7.23694 0.9663 0.284832 0.450471 -0.846136 156 155 148
0.637931 -7.23694 0.9663 0.284832 0.450471 -0.846136 156 155 148
0.637931 -7.23694 0.9663 0.284832 0.450471 -0.846136 156 155 148
0.683223 -7.1346 0.956326 0.31659 0.299331 -0.900095 153 152 142
0.707713 -7.24329 0.973954 -0.128337 0.476607 -0.869698 151 151 141
0.793956 -7.18798 0.96257 0.00799745 0.786916 -0.617009 168 168 161
0.827463 -7.21291 0.949203 -0.277843 0.88913 -0.363664 164 164 156
0.88971 -7.19652 0.942743 0.030708 0.4635 -0.885565 177 177 169
0.890945 -7.18929 0.950947 0.287971 0.452141 -0.844181 180 180 172
0.941391 -7.17145 0.95293 -0.0443652 0.350763 -0.935413 180 178 173
0.935574 -7.18955 0.968917 0.438959 0.499391 -0.746943 179 178 172
0.945837 -7.2155 0.966568 0.641182 0.657624 -0.395495 176 176 169
0.993092 -7.26336 0.963612 0.174841 0.519027 -0.836685 166 165 157
1.02967 -7.18209 0.966859 0.208201 0.41929 -0.883656 169 168 158
1.06189 -7.17618 0.96524 0.311724 0.509279 -0.802162 164 162 153
1.1179 -7.1919 0.97818 0.291446 0.439879 -0.84945 166 164 155
1.17684 -7.24471 0.985017 0.413551 0.450243 -0.791364 160 159 151
1.21497 -7.22323 0.95567 0.763005 0.488692 -0.423087 176 175 169
1.24472 -7.20473 0.980962 -0.0670777 0.460948 -0.884888 169 166 159
1.3647 -7.28165 0.9951 -0.432652 0.327423 -0.840004 173 170 162
1.48381 -7.27048 0.9993 0.466933 0.585291 -0.662879 159 158 152
1.47521 -7.27398 0.997458 0.407872 0.565933 -0.716492 165 163 156
1.52025 -7.29321 0.996824 0.493292 0.561253 -0.664573 112 112 107
1.51508 -7.29734 0.993966 0.389732 0.552937 -0.736457 123 123 117
1.55433 -7.32308 0.990641 0.400268 0.572611 -0.715474 116 116 110
1.58752 -7.31847 1.01656 0.448628 0.669482 -0.592053 112 111 109
1.64057 -7.38441 1.02556 0.747932 0.633857 -0.197036 142 140 129
1.63079 -7.36827 1.02556 0.740073 0.591858 -0.319369 144 142 132
1.68714 -7.44794 1.04791 0.740893 0.607583 -0.286216 117 115 105
1.71734 -7.48939 1.04918 0.820293 0.534262 -0.204166 82 82 72
1.7451 -7.53132 1.04899 0.775398 0.600538 -0.195225 71 70 60
1.79516 -7.57338 1.05781 0.699139 0.711889 0.0664774 99 98 90
1.8282 -7.57781 1.07701 0.00971094 0.999399 0.0332645 70 70 62
1.85991 -7.57502 1.05745 -0.151047 0.988261 0.0228961 101 101 92
1.89242 -7.57193 1.07681 -0.141671 0.98977 -0.0168842 112 112 104
1.89202 -7.57213 1.0756 -0.15441 0.98778 -0.021165 113 113 105
1.92487 -7.56899 1.05829 -0.0390218 0.998464 -0.0393288 96 97 92
1.95022 -7.56715 1.06127 0.00504616 0.99722 -0.0743443 97 98 94
1.983 -7.57101 1.08097 0.0986822 0.991689 -0.0825527 127 128 122
2.0463 -7.56697 1.07904 0.0597212 0.992951 -0.102382 92 93 86
2.0143 -7.5697 1.06092 0.098629 0.990418 -0.0966674 106 106 100
2.07851 -7.57166 1.05907 -0.00645988 0.988327 0.152211 138 138 129
2.1111 -7.56975 1.07951 -0.0317042 0.999125 0.0272768 128 128 120
2.11085 -7.57011 1.07801 -0.0719548 0.995416 0.0630048 126 127 119
2.14363 -7.56987 1.06136 0.0358899 0.999337 -0.00617003 88 88 82
2.19737 -7.56577 1.06351 0.0040579 0.999449 -0.0329431 109 110 101
2.22946 -7.56439 1.08188 -0.0229119 0.999709 0.00759354 101 102 93
2.26222 -7.56298 1.06554 -0.140401 0.98898 0.046966 138 139 130
2.29131 -7.57085 1.08423 -0.0536037 0.993463 0.100787 125 126 120
2.35198 -7.56953 1.0754 0.0559964 0.989924 -0.130055 95 97 93
2.31763 -7.5616 1.05421 0.0148573 0.994657 0.102157 67 70 66
2.3189 -7.56287 1.09319 -0.0643152 0.997916 -0.00518951 102 104 98
2.38424 -7.5634 1.09335 0.0902454 0.977301 -0.191676 118 119 112
2.41689 -7.56944 1.07515 0.103165 0.992105 -0.0713088 127 127 118
2.41676 -7.56405 1.07594 0.0432183 0.998592 0.030766 125 126 116
2.44939 -7.56759 1.09397 0.105056 0.980009 -0.168953 138 139 129
2.45005 -7.56681 1.09605 0.103512 0.974567 -0.198758 138 138 128
2.48267 -7.57593 1.07722 0.223573 0.973674 0.0444299 97 97 89
2.52296 -7.57535 1.07109 0.122802 0.990151 0.0672419 69 70 65
2.52372 -7.58672 1.06834 0.410159 0.906291 0.102015 69 70 64
2.53542 -7.57528 1.09862 0.205183 0.977661 -0.045597 95 96 90
2.58484 -7.58046 1.07867 0.0910193 0.994127 0.0585426 113 113 103
2.61727 -7.58591 1.09745 0.144071 0.988191 0.0521803 127 127 116
2.65757 -7.59804 1.08415 0.237616 0.964478 0.11542 104 104 96
2.68734 -7.59754 1.09951 0.31568 0.94554 -0.0793712 78 79 74
2.71938 -7.61032 1.08122 0.117655 0.983358 0.138434 70 71 67
2.78054 -7.61282 1.10487 0.074078 0.997219 -0.00814819 117 117 108
2.91669 -7.63141 1.08822 0.0323757 0.99791 0.0559188 90 90 83
2.94753 -7.6467 1.10704 -0.0438945 0.984735 0.168438 107 108 101
2.98413 -7.65285 1.10811 -0.146358 0.969986 0.194181 144 145 135
