ply
format ascii 1.0
element vertex 726
property float x
property float y
property float z
property float nx
property float ny
property float nz
property uchar diffuse_red
property uchar diffuse_green
property uchar diffuse_blue
end_header
2.66992 9.37846 6.80086 0.278416 -0.553059 -0.785245 141 125 102
2.18524 9.30873 6.21647 0.510746 -0.677235 -0.529614 115 103 96
1.12585 7.9568 4.93635 0.129259 -0.934859 -0.330653 81 110 119
1.26166 8.00069 5.04432 0.429176 -0.858627 -0.280298 117 141 150
2.79521 8.67501 5.32252 -0.422533 -0.792923 -0.43902 141 129 127
2.27885 8.11454 4.5047 -0.607763 -0.737809 0.293704 186 200 207
3.50528 8.87162 5.03013 -0.401931 -0.913237 0.0667025 185 204 205
-4.43507 10.1635 4.2912 -0.0393658 -0.77588 -0.629652 122 142 146
-2.83646 10.2752 4.37618 0.617304 -0.306716 -0.724473 127 147 149
-3.51833 10.4468 4.15445 0.121421 -0.776031 -0.618896 90 117 125
-2.52311 10.3088 4.21344 0.0548805 -0.0539015 -0.997037 78 103 110
2.07374 8.27296 3.05258 0.546322 -0.714813 -0.436549 137 143 148
2.66071 8.85804 2.10702 -0.371521 -0.914986 -0.157394 162 105 60
2.88595 9.07446 2.15467 0.0744466 -0.87986 0.469367 158 100 54
-0.0540025 9.21335 1.74956 0.123378 -0.308673 -0.943132 136 159 166
-1.56334 9.45498 1.54597 0.116996 -0.782685 0.611324 119 134 135
0.566913 8.96374 1.65286 -0.565308 -0.644767 -0.514492 170 190 198
1.59029 8.9943 1.50522 0.348198 -0.611392 -0.710604 146 155 164
-6.51474 8.46417 0.360242 0.0350506 -0.984251 -0.173266 151 161 161
-1.0008 8.99934 0.651807 0.607504 -0.791556 0.0661694 147 158 159
2.74398 9.22932 1.09659 -0.91482 -0.35785 -0.187212 117 65 29
2.74747 8.69197 0.978003 -0.949501 -0.250811 -0.188527 96 59 33
-0.700129 9.18452 0.46924 0.117504 -0.331758 -0.936018 117 115 112
0.513628 9.05381 0.629125 0.0411248 -0.984549 -0.170213 134 139 140
-6.24094 9.02934 -0.201802 0.101024 -0.463526 -0.880306 102 100 95
-2.92999 9.33838 0.176223 0.0574457 -0.392582 -0.917921 123 125 126
-1.96256 9.07271 0.237537 0.469648 -0.518982 -0.714205 108 119 125
-1.37117 9.0545 0.288626 0.205609 -0.56499 -0.799069 77 100 110
1.57484 9.43337 0.732382 0.320106 -0.792705 -0.518797 159 163 165
-6.78051 9.80796 -0.233686 0.706173 -0.268973 -0.654961 103 64 39
-5.81551 9.19462 -0.215263 0.128435 -0.622278 -0.772189 85 67 56
-4.51126 9.57514 -0.106571 0.349559 -0.302724 -0.88666 102 52 21
0.244147 9.26861 0.384945 0.115332 -0.463432 -0.878595 109 109 110
-3.75218 9.52286 -0.0978347 0.360849 -0.301943 -0.882394 98 48 21
-3.92368 10.0251 -0.0731834 0.257949 -0.445882 -0.857118 106 58 28
-3.72206 9.94392 -0.0240677 0.626823 -0.360365 -0.690819 99 49 20
-3.62473 9.94414 -0.0506753 0.397784 -0.652563 -0.644925 103 54 23
-3.54795 9.92029 -0.0504193 0.0482827 -0.580995 -0.812474 106 55 24
-9.14895 12.0691 -0.515985 0.936068 -0.208308 0.283523 63 29 9
-5.39041 9.83793 -0.356599 0.1407 -0.84414 -0.517331 80 29 4
-3.36514 10.281 -0.0696734 0.00249033 -0.756277 -0.654247 107 57 25
-3.00818 10.1131 -0.0254023 0.20859 -0.406375 -0.889578 109 58 24
-1.8677 9.55017 0.00230506 0.207027 -0.455843 -0.865648 105 51 20
-1.60426 9.14795 -0.0449505 0.0912757 -0.476487 -0.874431 123 121 120
-1.07303 9.41629 0.100785 0.678952 -0.718513 -0.150878 111 107 102
1.92669 9.66287 0.421185 -0.00871715 -0.358814 -0.933369 125 125 119
-7.2888 11.4201 -0.489116 0.882985 -0.465022 0.0639668 29 25 17
-5.46256 9.94729 -0.444897 0.812466 -0.299549 -0.50017 70 30 9
-3.63886 10.6828 -0.102861 -0.600926 -0.755007 -0.262398 119 72 33
-0.48475 9.70531 0.0547269 0.123525 -0.756542 -0.642173 96 58 40
-8.62006 11.4615 -0.76517 0.835003 -0.337903 0.434272 94 54 21
-5.02471 10.306 -0.452254 0.52155 -0.805846 -0.280356 74 32 9
-4.5899 11.8766 -0.187825 -0.211867 -0.907857 0.361812 78 43 23
-1.55682 9.28078 -0.132811 -0.029644 -0.4906 -0.870881 114 88 76
-1.58256 9.15846 -0.15744 -0.0057266 -0.501826 -0.86495 113 85 71
-1.51118 9.34962 -0.158885 -0.460374 -0.737754 -0.493736 104 73 57
0.655703 9.78752 0.14053 -0.32213 -0.753691 -0.572872 104 64 49
-2.35415 10.8259 -0.178909 0.209043 -0.510264 -0.834225 89 32 3
-1.22252 9.62918 -0.208101 0.345036 -0.536849 -0.769898 112 77 58
-0.965884 9.95606 -0.0845192 0.456652 -0.463309 -0.759483 98 56 28
-0.969786 9.96584 -0.0824484 0.440935 -0.44492 -0.779501 99 56 27
1.80164 10.008 0.244628 0.0573685 -0.392797 -0.917834 105 71 54
1.80164 10.008 0.244628 0.0573685 -0.392797 -0.917834 105 71 54
-8.4317 11.2464 -0.919926 0.966444 -0.208166 0.150507 102 60 22
-8.45574 11.2498 -0.89546 0.980715 -0.107004 0.163551 101 59 22
-7.19521 11.5418 -0.792284 0.943475 -0.239534 0.229083 106 65 30
-7.1955 11.5521 -0.782662 0.886425 -0.381858 0.261601 105 64 31
-4.81306 11.2485 -0.49194 0.881333 -0.42189 0.212746 89 47 16
-4.54903 11.9194 -0.408965 0.461893 -0.87006 0.172194 88 46 15
-0.901664 9.86987 -0.176233 0.0164037 -0.417297 -0.908622 113 70 42
0.899514 9.89971 0.00134024 0.136038 -0.898285 -0.417826 114 62 29
-1.88845 11.7503 -0.273312 -0.020867 -0.490811 -0.871016 100 70 47
-1.60338 11.5434 -0.292811 0.0976861 -0.435733 -0.89476 148 136 126
-0.394422 10.009 -0.249844 0.325281 -0.722852 -0.609653 143 108 84
-0.400845 10.7042 -0.184348 0.448501 -0.536751 -0.714664 152 125 104
-0.343685 10.6724 -0.216536 0.465052 -0.63674 -0.615052 153 127 110
1.77698 11.9573 0.172238 0.0285999 -0.418741 -0.907655 132 85 52
1.92681 11.7711 0.152704 0.0908263 -0.42705 -0.899655 125 76 39
2.29293 10.7088 0.148212 -0.0176994 -0.408277 -0.912686 107 60 29
-4.21538 11.7569 -0.709233 0.776307 -0.487677 0.399398 112 69 27
1.09054 11.8138 0.0182096 -0.101882 -0.413758 -0.904668 151 121 101
-4.53542 11.6031 -0.803643 0.769047 -0.523285 0.367068 117 74 32
1.14154 12.6304 -0.0167364 0.105794 -0.438014 -0.892721 141 122 109
-1.22359 11.4938 -0.491248 0.0767079 -0.836437 -0.542668 145 128 112
-0.277237 11.8389 -0.393442 0.311343 -0.94676 -0.0819191 149 133 122
1.90915 12.8111 -0.0486598 0.0168156 -0.438749 -0.898452 125 98 85
2.92508 11.0795 -0.0762567 -0.77892 -0.558064 -0.28609 103 80 60
-4.72302 10.4797 -1.13867 0.894088 -0.364195 0.260708 128 85 41
-1.35851 11.5213 -0.621301 -0.202884 -0.818137 -0.538043 144 111 82
-1.0257 11.524 -0.565696 0.47707 -0.872438 -0.106099 141 114 91
0.455131 11.3924 -0.417587 0.124538 -0.654646 0.745607 129 84 50
-4.32936 11.296 -1.0869 0.741962 -0.529274 0.411537 130 88 44
-3.96178 11.8446 -1.08313 0.752355 -0.549513 0.363315 136 99 58
0.244671 12.1949 -0.479707 -0.525787 -0.565166 -0.635717 138 100 71
-4.41645 11.1348 -1.20229 0.778657 -0.517891 0.354235 135 92 48
-2.62226 9.86361 -1.03722 0.780342 -0.564574 0.268928 136 98 54
-2.50872 9.6992 -1.05905 0.743192 -0.57828 0.336537 138 100 58
-2.50872 9.6992 -1.05905 0.743192 -0.57828 0.336537 138 100 58
-1.09102 12.0167 -0.771277 0.540999 -0.717163 -0.439316 150 104 61
0.255979 12.354 -0.582468 0.0195034 -0.557413 -0.830007 151 107 66
2.92124 12.0992 -0.427477 -0.908097 -0.404114 -0.109783 106 90 74
3.26193 11.6992 -0.517262 -0.839769 -0.538883 -0.066281 114 110 98
-2.06439 11.4739 -1.30797 -0.664122 -0.697227 0.269845 149 109 65
1.65676 12.1607 -1.21678 0.518993 -0.734663 0.436941 152 106 58
-9.0589 5.16938 6.74056 0.611051 0.446498 -0.653648 207 215 213
-8.8631 6.57614 8.72738 0.979785 0.0911021 -0.178107 214 225 223
-8.98806 6.89361 9.14884 0.965281 -0.0771763 -0.249552 214 227 225
-9.91284 6.33914 8.25509 0.310921 0.423855 -0.850691 207 215 212
-5.61084 7.16797 8.6425 0.869839 -0.25349 -0.423228 207 227 225
-9.13448 7.38968 9.36091 0.922786 0.0588198 -0.380797 212 226 223
-9.12305 7.44509 9.34646 0.96012 0.0472192 -0.275573 212 226 223
-4.99922 7.58964 8.86745 0.235661 -0.825093 -0.513504 202 221 218
-10.6444 7.56941 9.72106 0.481234 0.373016 -0.793267 211 219 217
-10.65 7.57397 9.72088 0.475724 0.373709 -0.796259 211 219 216
-9.16646 6.5141 8.05832 0.968547 0.160397 -0.190235 211 221 218
-10.475 6.83565 8.4208 0.984003 -0.0895473 -0.154009 204 211 209
-9.26764 6.64489 7.98767 0.943536 0.210961 -0.255414 210 220 216
-9.20144 6.71625 8.09595 0.979787 0.11824 -0.16136 210 220 217
-9.17353 6.84214 8.29021 0.959465 0.173958 -0.221732 209 220 217
-9.09238 7.32058 8.93602 0.950467 -0.0238812 -0.309908 209 224 221
-9.00814 7.37841 9.01669 0.974816 0.0941078 -0.202181 210 225 222
-10.7712 7.42642 9.16519 0.981956 -0.129325 -0.137974 204 214 211
-10.7415 7.53863 9.354 0.980755 -0.130214 -0.145477 207 215 213
-10.772 7.60743 9.32616 0.972774 -0.127776 -0.193351 205 214 212
-9.79003 7.08954 8.60246 0.96594 0.164232 -0.199968 210 220 216
-8.83032 7.16873 8.53002 0.972543 0.10462 -0.207883 209 224 221
-9.26179 6.79715 7.94756 0.976399 0.120499 -0.179233 208 219 216
-9.33867 6.8831 8.06622 0.93461 0.235422 -0.266611 208 219 216
-5.04748 7.34082 8.01731 0.700617 -0.570174 -0.428996 204 224 222
-5.00802 7.57036 8.24543 0.510048 -0.857931 0.0616821 203 223 221
-4.8844 7.46611 8.03502 0.881429 -0.294669 -0.369124 201 221 219
-4.88577 7.49311 8.06856 0.878554 -0.292118 -0.377901 201 221 219
-1.25988 8.71514 9.18409 0.53358 0.0165835 -0.845587 200 216 213
-10.1416 5.77275 6.66758 0.973589 -0.0289094 -0.226469 197 205 204
-8.9323 6.92559 7.88552 0.963638 0.152248 -0.219596 205 218 215
-9.04268 7.05278 8.08917 0.86145 0.22767 -0.45395 205 218 215
-9.10064 7.57983 8.77813 0.934278 -0.157955 -0.319647 207 221 218
1.15047 8.82655 8.73153 0.0415994 -0.990555 0.130657 200 213 212
-8.85525 7.36489 8.29154 0.979005 0.0626856 -0.193956 206 220 217
-7.06728 6.99697 7.46728 0.923516 0.120995 -0.363977 205 219 217
-3.78454 8.21044 8.58069 0.655956 -0.305691 -0.690127 192 211 209
-9.24634 7.67309 8.55399 0.970553 -0.0883522 -0.224101 203 218 215
-7.05147 6.77517 7.151 0.892328 0.180621 -0.413675 204 220 217
-3.36752 8.55217 8.66449 0.753992 -0.649684 -0.0969835 193 213 210
-8.84591 7.40817 7.98353 0.960585 0.0810624 -0.265904 204 218 215
-7.21185 7.21824 7.49684 0.0892097 0.354082 -0.93095 203 218 217
1.96614 8.93075 8.19532 0.339165 -0.880654 -0.330781 194 195 182
-9.4312 7.96845 8.53086 0.952369 -0.00447632 -0.304916 203 217 213
1.19965 8.60251 7.36536 0.529572 -0.818597 -0.22238 171 173 154
1.52877 8.46748 7.13946 0.550536 -0.777804 -0.303201 170 170 153
1.79709 8.5761 7.2312 0.511405 -0.767349 -0.386835 168 168 150
2.04312 8.74247 7.39989 0.537881 -0.790874 -0.291895 167 165 147
-1.32722 8.34406 7.14851 -0.492594 -0.85353 0.169819 172 180 163
-1.27802 8.60248 7.46147 -0.705195 -0.708808 0.0170763 171 179 160
2.2924 8.87224 7.31939 0.587191 -0.608695 -0.53357 169 167 148
-12.2785 7.99111 8.1247 -0.236846 -0.906054 -0.350671 181 182 177
-10.972 6.82237 6.7227 0.994728 0.101268 0.0161333 182 184 178
-11.6615 7.9467 8.12386 0.0623937 -0.968293 -0.241901 183 186 176
-12.1621 8.02584 8.0756 -0.150522 -0.964938 -0.21503 181 180 165
-6.22973 7.74723 6.91591 0.835747 -0.537881 -0.110507 178 185 165
1.25495 8.3932 6.59314 0.316639 -0.941589 -0.114675 87 109 114
2.41942 8.98974 6.92859 0.448693 -0.355157 -0.820084 151 139 120
1.69788 8.74981 6.6211 0.493106 -0.81131 -0.314042 142 155 157
2.74416 9.46556 6.96529 0.418582 -0.202689 -0.885272 145 133 111
-0.655019 8.603 6.12411 -0.698785 -0.282778 -0.657066 77 107 115
1.88262 9.08504 6.20203 0.486081 -0.851469 -0.196789 125 142 145
2.51806 9.39313 6.38613 0.256184 -0.353235 -0.899775 133 112 92
0.115899 8.65358 5.90653 0.564274 -0.7769 -0.279322 107 131 136
1.25318 8.89954 5.96531 -0.88738 -0.170103 -0.42851 147 166 173
2.59794 9.51845 6.41891 0.295217 -0.347454 -0.890013 137 117 98
2.59794 9.51845 6.41891 0.295217 -0.347454 -0.890013 137 117 98
2.59794 9.51845 6.41891 0.295217 -0.347454 -0.890013 134 115 95
3.75666 8.98751 5.80803 -0.995965 -0.0458625 -0.077136 158 167 168
3.75666 8.98751 5.80803 -0.995965 -0.0458625 -0.077136 158 167 168
3.75666 8.98751 5.80803 -0.995965 -0.0458625 -0.077136 158 167 168
2.45569 9.48027 6.26396 -0.359393 0.25088 -0.89883 127 100 81
2.05979 8.36114 5.22749 -0.914564 -0.381282 0.134896 127 111 94
2.78328 8.60394 5.40013 -0.236884 0.210464 -0.948468 141 135 128
2.84309 8.703 5.47578 -0.990977 -0.104032 -0.0845055 141 134 128
2.81721 8.48935 5.30387 -0.940433 -0.310055 0.139468 144 138 136
3.62482 8.92372 5.56362 -0.977205 -0.109776 -0.181712 163 170 172
-10.8672 7.92272 6.22535 0.502486 0.391376 -0.77093 124 137 137
-10.6874 7.90524 6.27989 0.538386 0.399542 -0.741962 139 150 145
2.0126 8.6871 5.40226 -0.834108 -0.503322 0.225678 131 108 95
1.8242 7.91256 4.76843 -0.896067 -0.413275 0.162073 133 120 108
2.94243 9.34107 5.92087 -0.988168 -0.0953751 -0.120116 144 134 127
3.07603 9.60578 6.13511 -0.965128 -0.166827 -0.201735 132 121 110
1.49779 8.1362 4.90771 -0.986998 -0.0565813 -0.150447 130 113 106
1.76373 8.47409 5.13108 0.190381 -0.897467 -0.39788 123 104 98
-7.3494 7.59149 5.30063 0.937296 -0.210156 -0.278046 78 107 115
-7.03067 8.1249 5.76824 0.865855 0.0318638 -0.499279 68 96 105
0.231386 9.10804 5.78651 0.418216 -0.908005 0.0249508 135 156 164
1.49095 8.06761 4.37099 -0.143979 -0.989307 0.0232681 178 196 206
-8.98052 8.11982 5.13761 0.990773 0.057014 -0.122954 121 139 141
-9.55302 8.20294 5.06915 0.976671 0.117018 -0.180056 36 32 26
1.36919 7.90719 3.74986 0.556994 -0.709314 -0.432008 161 183 195
2.93224 8.62205 4.10068 0.345536 -0.307893 -0.886457 135 119 117
2.93224 8.62205 4.10068 0.345536 -0.307893 -0.886457 135 119 117
2.93224 8.62205 4.10068 0.345536 -0.307893 -0.886457 135 119 117
-10.9129 8.21914 5.01951 0.971956 0.153045 -0.178547 127 137 142
-11.1411 8.00297 4.58642 0.992987 0.111731 0.038641 58 68 70
3.42894 9.11128 4.01065 -0.707894 0.179437 -0.683146 123 91 101
-9.32528 8.43868 4.57644 0.99155 0.0162847 -0.128697 155 165 166
3.4589 9.25629 3.95283 -0.98377 0.0149673 -0.178811 121 106 111
3.4992 9.12454 3.9225 -0.769113 -0.490856 0.409299 127 95 105
-8.54893 8.4402 4.45429 0.755839 0.23489 -0.611174 106 119 115
2.36213 8.35656 3.36535 -0.660446 -0.591714 0.462261 113 110 114
3.3596 9.11881 3.67254 -0.955549 -0.116951 -0.270646 113 113 120
3.44456 9.0503 3.68285 -0.942418 -0.0841194 -0.323685 109 104 111
3.23621 9.57011 3.71493 0.418413 -0.90784 -0.0275186 121 128 131
-8.363 8.31288 3.87941 0.957428 -0.150526 -0.246322 142 150 150
-8.55614 8.4758 3.90777 0.95151 -0.124024 -0.281509 148 157 154
-8.55614 8.4758 3.90777 0.95151 -0.124024 -0.281509 148 157 154
-8.61141 8.54014 3.95356 0.995465 0.0382035 -0.0871224 148 156 154
-8.50686 8.5931 3.88148 0.987773 0.0178426 -0.154876 135 144 143
2.8885 9.35164 3.28861 -0.974672 -0.201489 -0.0970377 105 101 96
-0.750873 10.4148 4.16017 0.0457246 -0.874974 0.482006 79 111 121
3.2765 9.29386 3.10759 -0.971722 -0.208547 0.110748 153 167 172
3.17622 9.4619 2.98995 -0.683055 0.10189 -0.723225 132 123 111
3.25198 9.35877 2.99454 -0.98342 -0.162988 0.0794946 142 167 171
-5.38167 10.3404 3.96275 0.000706309 -0.847902 -0.530153 121 142 146
-8.76129 7.21576 2.40252 0.862667 0.0312267 -0.504807 142 149 148
-5.46502 10.4073 3.918 0.0249051 -0.733931 -0.678768 100 118 119
-9.17834 7.08026 2.26506 0.537048 -0.0516281 -0.841971 165 175 175
-8.92778 7.20255 2.20531 0.203214 -0.117615 -0.972045 180 189 188
-5.81906 10.4239 3.58472 0.908892 -0.397945 -0.124721 85 95 94
-9.15298 7.21643 2.20656 0.316389 -0.157472 -0.935468 154 161 162
-8.84989 7.22459 2.17052 -0.0357203 -0.205467 -0.978012 151 159 159
2.04054 8.88918 2.15896 -0.0213497 -0.987571 -0.155715 147 143 148
-8.92074 7.29232 2.07685 0.270526 -0.228954 -0.935091 161 168 168
-7.80031 9.34625 2.99537 0.768204 0.00995955 -0.640128 135 140 139
-7.8367 9.42748 3.03726 0.93621 -0.349531 0.036582 135 140 141
0.752232 8.47072 1.99027 -0.869745 -0.491126 0.0483613 190 212 225
-8.9354 7.3556 2.01711 0.461815 -0.121211 -0.878655 165 170 172
-8.78761 7.387 2.04172 0.174425 -0.0571022 -0.983013 155 160 159
-8.43766 7.01683 1.88107 -0.0635832 -0.368232 -0.927557 175 179 178
-8.70376 7.40332 2.01021 0.51681 -0.125008 -0.846924 129 137 135
-8.41147 7.71553 2.1587 0.933247 -0.311074 0.179677 134 141 140
-9.17862 7.2567 1.89191 0.760668 0.144189 -0.632925 163 170 171
-8.70741 7.43094 1.95268 0.442514 -0.161118 -0.882169 156 164 163
-8.55543 7.586 2.05549 0.683901 -0.729474 -0.0121538 169 177 178
-8.82725 7.39633 1.82372 -0.3862 -0.836691 -0.388327 162 165 166
-8.82725 7.39633 1.82372 -0.3862 -0.836691 -0.388327 162 165 166
-8.82365 7.3921 1.82159 -0.145622 -0.895851 -0.419817 162 164 165
-8.786 7.42968 1.8387 0.321054 -0.898148 -0.300424 147 151 154
-8.7794 7.43247 1.90164 0.184371 -0.301316 -0.93553 150 154 156
-8.57546 7.58859 1.95453 0.343222 -0.778246 -0.525862 175 183 183
-8.48957 7.61464 1.92188 0.922086 -0.148123 -0.357514 144 152 152
-8.81048 7.45325 1.78081 0.219973 -0.875138 -0.430982 147 151 153
-8.70172 7.44893 1.79559 0.650557 -0.759274 -0.0167219 165 170 170
-8.17869 7.12085 1.58933 0.998085 -0.0381818 0.0486664 152 160 158
-7.98909 8.468 2.17796 0.864358 -0.0368862 -0.501523 134 138 138
0.114326 8.81759 1.82479 -0.143857 -0.757653 -0.636606 143 167 177
0.631548 8.70581 1.69643 -0.115019 -0.385126 -0.915669 178 196 206
2.24557 8.93349 1.75856 0.0298323 -0.233843 -0.971817 37 20 15
-9.03026 7.45158 1.74703 -0.138794 -0.381031 -0.914085 144 149 151
-8.83478 7.49195 1.76469 -0.05922 -0.462147 -0.884824 142 147 147
-8.75964 7.53307 1.73086 0.106001 -0.8974 -0.428297 159 164 164
-7.97561 8.50954 2.14412 0.964943 -0.245865 -0.0918426 126 131 130
-0.029828 8.86521 1.74214 -0.924497 -0.254601 -0.283695 159 182 191
0.109912 8.88733 1.74903 0.00115008 -0.678516 -0.734585 175 198 209
0.528614 8.80189 1.70622 -0.491597 -0.0838118 -0.866781 148 167 176
-8.57799 7.50638 1.60653 -0.139836 -0.904663 -0.40253 151 158 159
-8.61747 7.47777 1.63239 0.102271 -0.976544 -0.18948 154 160 159
-8.15941 7.16251 1.4692 0.982262 -0.17073 -0.0775376 134 142 139
-8.26908 7.64908 1.68608 0.742322 -0.520182 -0.422337 130 138 137
-7.99557 8.41813 2.00856 0.945372 -0.262976 -0.192656 129 135 133
0.0228678 9.1433 1.74961 -0.490917 -0.361984 -0.792444 152 174 183
-0.0549806 9.04805 1.72211 -0.924824 -0.261049 -0.276682 158 180 189
0.331824 8.8522 1.65998 -0.871843 -0.481724 -0.0884978 169 190 200
0.609877 8.81635 1.60722 -0.807586 -0.105849 -0.580173 154 171 179
-8.73154 7.60783 1.62277 -0.274962 -0.541963 -0.794149 147 154 153
-8.02534 8.33663 1.88589 0.944913 -0.303794 0.121852 131 134 134
-8.01624 8.56185 1.91141 0.957522 -0.222947 -0.182884 127 130 128
0.316427 8.94187 1.60961 -0.400689 -0.254752 -0.880085 156 176 187
-8.7597 7.61897 1.52663 -0.156627 -0.40804 -0.899428 160 166 166
-8.04211 8.35905 1.76018 0.959883 -0.28032 -0.00672626 130 134 132
-7.70626 9.27094 2.04573 0.036301 -0.82889 0.558232 108 117 115
0.595085 9.11735 1.48456 -0.649743 -0.187013 -0.736791 135 155 164
1.76978 8.90663 1.37282 -0.0794768 -0.193437 -0.977888 161 167 171
-9.55175 7.91984 1.60481 0.723078 -0.041945 -0.689491 49 12 2
-8.73827 7.65609 1.44958 0.104872 -0.402815 -0.909253 167 174 177
-8.26446 7.8871 1.48104 0.970232 -0.233018 -0.0659708 167 174 173
-7.99249 8.5514 1.75998 0.998203 -0.035148 0.0485361 124 127 126
-7.88704 8.68642 1.74072 0.982032 -0.0709731 -0.174861 101 104 102
-7.82453 9.05103 1.86412 0.394058 -0.659331 0.640314 85 90 87
-7.31145 9.27719 2.00368 0.0980763 -0.79926 0.592928 117 127 124
1.86915 9.0532 1.33127 -0.52495 -0.0656723 -0.848596 143 149 153
1.9632 8.88005 1.27791 -0.411417 -0.0884879 -0.907142 82 69 66
2.61407 9.20144 1.38024 -0.994349 -0.102503 -0.0276314 63 39 31
-8.42229 7.32479 1.22703 -0.342173 -0.939371 0.022352 143 150 152
-8.3264 7.90892 1.39811 0.880777 -0.275329 -0.385261 159 166 168
-7.96197 8.66026 1.65656 0.859178 -0.0479046 -0.50943 126 130 126
-7.88226 8.88257 1.76631 0.407657 -0.906793 -0.10744 73 76 73
0.585171 9.42727 1.49989 -0.17078 -0.890941 -0.420783 120 141 148
1.18304 9.22381 1.33504 -0.240848 -0.251168 -0.9375 133 152 159
2.65271 9.52446 1.38822 -0.87357 -0.381812 0.301821 77 45 32
2.73045 9.45267 1.29633 -0.955741 -0.204825 -0.211203 135 79 43
2.71752 9.25327 1.29959 -0.994545 -0.104003 -0.00794526 100 54 28
2.71752 9.25327 1.29959 -0.994545 -0.104003 -0.00794526 100 54 28
2.71752 9.25327 1.29959 -0.994545 -0.104003 -0.00794526 100 54 28
-8.64685 7.79712 1.34394 -0.204771 -0.934073 0.292535 182 188 188
-8.53902 7.85444 1.31212 0.296353 -0.2418 -0.923963 150 157 155
-8.32012 7.95171 1.31206 0.431811 -0.89888 0.0745186 165 173 175
-8.17635 8.02231 1.3643 0.922382 -0.267764 0.278415 128 134 134
-7.84259 7.67482 1.22705 0.991808 -0.123437 0.0328623 138 143 141
-7.95622 8.75804 1.64006 0.947103 -0.091847 -0.307507 91 95 91
-7.70349 8.78285 1.63586 -0.243467 -0.913889 0.324856 107 116 114
0.5014 9.13991 1.22261 -0.464409 -0.648095 0.60357 140 157 160
1.59778 9.24701 1.22692 -0.839392 -0.278121 -0.466979 170 182 187
2.70779 9.29839 1.21528 -0.992739 -0.112587 -0.042339 131 76 40
-9.61788 7.7328 1.22304 0.852365 0.0580857 -0.519711 120 60 14
-9.51732 8.087 1.34961 0.779722 0.167047 -0.603432 4 5 1
-9.00007 7.73629 1.20674 0.997316 0.0242195 0.0690932 18 10 6
-8.38087 7.9142 1.23908 0.00736193 -0.580634 -0.814132 167 176 175
-8.28788 7.95582 1.21297 0.229796 -0.692988 -0.683345 164 174 174
-8.20412 7.94388 1.26836 0.619388 -0.723514 -0.304772 132 139 140
-8.15728 8.09401 1.2849 0.764176 -0.644887 -0.0124463 156 160 160
-8.07922 8.36456 1.41777 0.960581 -0.273168 0.0516031 131 136 135
-7.75612 8.65648 1.48476 -0.306564 -0.926951 0.216289 114 121 120
0.636634 9.04391 1.09275 -0.565873 -0.728572 0.385967 141 157 161
0.913659 9.24701 1.18293 0.235346 -0.968922 0.0761711 130 146 149
-8.41216 7.91566 1.16136 0.358495 -0.0964561 -0.928535 153 161 161
-8.37011 7.9649 1.15677 0.0671404 -0.886462 -0.457904 141 151 150
0.719099 9.11833 1.09166 0.286934 -0.866119 0.409276 138 153 157
-9.50106 8.05936 1.19494 0.645607 -0.117736 -0.754539 7 5 1
-8.56417 7.94264 1.05106 0.141202 -0.43001 -0.891714 105 111 116
-8.4393 7.95882 1.07867 0.602387 -0.189364 -0.775417 148 155 158
-8.33076 8.09052 1.12033 0.52638 -0.254058 -0.811405 157 166 165
-8.19166 8.06208 1.13335 -0.115942 -0.375083 -0.919712 140 148 147
-8.23998 8.13646 1.09666 0.454967 -0.703627 -0.545816 163 171 171
-8.04025 8.22351 1.14175 0.982237 -0.153864 -0.107405 126 128 127
-7.94867 8.66688 1.30538 -0.039747 -0.873857 0.484555 82 87 85
-7.70557 8.61456 1.2232 0.35589 -0.92219 0.151353 71 82 81
0.224112 8.95166 0.945848 -0.259652 -0.682626 0.683084 106 122 129
0.431718 9.0099 0.95809 -0.158091 -0.81012 0.564547 99 115 124
-9.59079 7.9501 1.03452 0.995578 0.0207988 0.091606 26 10 3
-9.56266 8.05365 1.1234 0.780392 -0.0672716 -0.621661 14 7 2
-8.36749 8.04579 1.03082 0.745166 -0.634539 -0.205154 174 181 182
-8.22625 8.04022 0.986726 0.504506 -0.26367 -0.822163 131 139 140
-8.20632 8.21023 1.10792 0.636278 -0.55196 -0.538972 150 158 157
-8.02008 8.13187 1.05958 0.816364 -0.533488 -0.221224 112 116 114
-8.06904 8.48361 1.19471 0.939706 -0.333323 -0.0764798 108 112 111
-7.90082 8.41934 1.13135 0.0478032 -0.802616 0.594578 68 76 76
-7.91928 8.48877 1.1662 0.557752 -0.696676 0.451171 74 81 80
-7.80388 8.47286 1.08942 0.435392 -0.767111 0.471142 76 85 86
-7.83292 8.61212 1.17967 0.0751425 -0.90517 0.418356 103 109 110
0.271384 8.96043 0.858576 0.0214438 -0.761824 0.647429 91 108 118
0.747391 9.07223 0.894083 0.333272 -0.938752 0.0876039 158 166 170
0.902923 9.01405 0.863375 0.544763 -0.83814 0.0274561 95 112 122
-8.60722 8.01709 0.922675 -0.389206 -0.91739 -0.0831506 97 105 107
-8.07592 8.24374 0.962977 0.157551 -0.85566 0.492975 121 126 124
-8.11928 8.41676 0.99863 0.92999 -0.187109 0.316401 115 119 116
-8.0127 8.3241 0.99138 0.729663 -0.214721 -0.64922 114 119 118
-7.72828 8.53848 1.02505 0.0146015 -0.895759 0.4443 126 132 133
-7.64548 8.5871 1.07533 0.0634762 -0.882039 0.466882 149 158 158
-7.52037 8.4922 1.0059 -0.313307 -0.895948 0.314828 149 162 165
-7.52409 8.65952 1.1078 0.535241 -0.605166 0.589314 137 149 148
-7.44473 8.57731 1.01375 0.00890315 -0.798819 0.601506 106 121 123
-7.32136 8.62959 1.04128 0.38574 -0.762894 0.518843 145 157 156
-7.1123 8.53678 1.02785 -0.364326 -0.895594 -0.255301 127 142 142
0.133894 8.95558 0.808969 0.177033 -0.947046 -0.267885 131 140 145
0.997763 9.14128 0.79293 0.556778 -0.714634 -0.423433 154 163 167
-9.58456 7.8541 0.877861 0.997343 -0.00815764 0.0723875 44 16 4
-9.98313 8.49413 1.03676 0.994292 0.0987039 0.0405037 68 28 15
-9.6422 8.5763 1.11869 0.886499 -0.0324652 -0.461591 23 11 5
-8.90264 8.05678 0.892062 -0.397673 -0.80954 -0.431859 103 106 106
-8.57039 8.07368 0.881465 -0.400959 -0.90522 -0.140743 99 108 111
-8.37012 8.16834 0.859002 0.0550999 -0.460104 -0.886154 123 132 134
-8.36715 8.08644 0.857019 -0.0105387 -0.42131 -0.906855 123 132 135
-7.99832 8.29755 0.915127 -0.0832035 -0.851771 0.517265 138 144 144
-7.8658 8.52122 1.01475 0.306074 -0.924924 0.225463 119 126 125
-7.65546 8.4857 0.916483 -0.0824975 -0.904465 0.418494 104 117 121
-7.42046 8.45932 0.897461 0.419444 -0.653359 0.630229 118 135 142
-7.33559 8.56382 0.956986 0.0620563 -0.861788 0.503458 146 158 156
-7.23387 8.59645 1.00668 -0.197982 -0.921611 0.333821 150 163 161
-6.69905 8.5741 0.943068 0.00197418 -0.791087 0.6117 151 164 166
-5.96956 8.59295 0.86456 0.126422 -0.875825 0.465777 131 148 148
0.217122 8.97448 0.670681 0.113997 -0.766057 -0.632583 145 152 155
0.344899 8.98936 0.696881 0.274987 -0.826799 -0.490699 129 136 138
0.430546 9.01666 0.658637 0.188277 -0.75385 -0.629493 124 129 130
0.645126 9.07419 0.740136 0.311999 -0.887507 -0.339098 137 146 150
-8.94305 8.27318 0.889571 -0.320045 -0.947395 0.00380647 108 112 111
-8.49734 8.18613 0.786629 0.586628 -0.621441 -0.519307 113 120 121
-8.19054 8.3199 0.80574 0.906234 -0.21858 -0.361889 137 145 146
-7.62804 7.80957 0.631475 0.989239 -0.0852316 0.118917 130 137 136
-7.82302 8.4147 0.886532 0.89493 -0.304794 0.325884 122 125 123
-7.65554 8.44046 0.807581 0.206427 -0.806966 0.553347 106 122 124
-7.54491 8.45172 0.853818 0.0661397 -0.921071 0.383736 91 111 118
-7.44241 8.44351 0.800164 0.0565457 -0.873515 0.483501 92 110 116
-7.31701 8.44888 0.843355 0.222915 -0.736248 0.638943 142 154 156
-5.97583 8.56323 0.767923 0.122922 -0.890811 0.43743 115 130 134
-5.80335 8.46311 0.747899 -0.464039 -0.676523 -0.571826 129 142 144
-5.76656 8.59189 0.826638 0.26192 -0.878398 0.39977 148 161 160
-1.03117 8.8113 0.619729 0.034324 -0.998758 0.0361228 147 159 162
-0.266451 8.51765 0.525994 0.557605 -0.806758 0.195494 153 158 159
0.137563 9.02037 0.629864 0.0658791 -0.795224 -0.602726 115 124 128
0.135947 9.01712 0.629086 0.072762 -0.803295 -0.59112 115 124 128
0.632676 9.09012 0.645064 0.466376 -0.711216 -0.52599 135 141 145
-7.95732 8.3706 0.750359 0.281967 -0.881093 0.379697 108 116 117
-7.87971 8.41739 0.798941 0.0396899 -0.857999 0.512116 109 113 112
-7.78062 8.41121 0.739775 0.159309 -0.889637 0.42798 141 152 152
-7.72817 8.39751 0.713787 0.1344 -0.859136 0.493783 121 133 134
-7.54079 8.38132 0.73917 -0.444702 -0.879382 -0.170079 147 163 165
-7.41096 8.32237 0.675813 -0.434592 -0.898841 -0.056702 147 160 160
-6.89865 8.45276 0.737864 -0.238841 -0.912565 0.331934 123 138 138
-6.56198 8.50428 0.757278 0.0859403 -0.833311 0.546083 117 132 135
-5.96779 8.51493 0.665214 0.147511 -0.964305 0.219902 158 169 167
-5.88184 8.52793 0.706788 0.0980512 -0.948392 0.30156 137 151 153
-5.80325 8.48821 0.655717 -0.302612 -0.91875 -0.253623 94 113 116
-5.42717 8.5542 0.688088 0.219379 -0.470864 -0.854494 106 118 117
-1.70079 8.98472 0.594125 -0.717079 -0.688302 0.109723 84 99 103
-1.61833 9.01061 0.651992 0.0289555 -0.316535 -0.948139 137 151 152
-0.923461 8.86333 0.543617 0.0780297 -0.908274 -0.411035 138 144 145
-0.311999 8.46578 0.395168 -0.641509 -0.730094 0.235433 117 119 121
0.0993658 9.08147 0.528454 0.405208 -0.833363 -0.375915 134 136 138
0.690197 9.23703 0.571996 0.239199 -0.750229 -0.616393 147 149 152
0.671991 9.19825 0.574289 0.33846 -0.695658 -0.633644 145 147 150
0.648878 9.19263 0.537735 0.276771 -0.554904 -0.784525 146 146 148
-9.16381 8.23241 0.668642 0.130969 -0.931864 0.338344 106 109 108
-7.93168 8.30824 0.627695 0.41502 -0.761776 0.49745 119 126 127
-7.86457 8.37497 0.688212 0.129746 -0.960795 0.245031 151 157 158
-7.75784 8.34146 0.625001 0.521856 -0.754755 0.397507 135 146 147
-7.58908 8.25974 0.617819 0.750311 -0.410369 0.518295 136 148 147
-7.35102 8.37128 0.642859 0.0112318 -0.99192 0.126363 158 169 168
-7.19898 8.38825 0.630589 -0.287692 -0.936057 -0.202559 108 124 126
-6.97607 8.3921 0.651825 0.411518 -0.764611 0.496007 157 169 169
-6.78831 8.4193 0.593731 -0.382542 -0.891671 0.242043 110 123 126
-6.561 8.44306 0.638149 -0.249075 -0.911727 0.326672 154 168 168
-6.44279 8.41359 0.596011 -0.359774 -0.93267 0.0262707 101 113 115
-5.96258 8.49812 0.570751 0.172652 -0.984193 0.0394516 105 117 118
-5.88622 8.50732 0.616188 0.0899682 -0.995931 -0.0051733 147 157 158
-5.65836 8.53009 0.577172 0.107776 -0.978465 0.176043 66 89 103
-5.46148 8.5978 0.612333 0.0874526 -0.995998 -0.0184639 121 129 127
-5.34445 8.58975 0.63958 0.119608 -0.914934 -0.385474 112 120 120
-5.26763 8.60863 0.600851 0.0681685 -0.380717 -0.922176 92 99 99
-5.11398 8.57934 0.613415 -0.418761 -0.603105 -0.678899 99 114 119
-2.45093 8.95447 0.543983 0.124838 -0.31607 -0.940487 78 90 95
-1.044 8.87956 0.50891 0.600009 -0.730389 -0.326376 125 134 135
-0.300269 9.16523 0.527504 0.123534 -0.623541 -0.771969 85 91 94
0.217352 9.18961 0.510888 0.472859 -0.703344 -0.530765 116 120 122
0.339714 9.14389 0.518318 0.296124 -0.678834 -0.671934 95 104 108
-9.05411 8.2049 0.634593 -0.144548 -0.974333 -0.172574 111 114 112
-8.96021 8.20583 0.564259 0.132617 -0.945766 0.296544 130 134 133
-7.71981 7.82262 0.402765 0.900575 -0.341844 -0.268527 138 142 140
-8.02649 8.25526 0.595811 0.588714 -0.298722 -0.75112 130 137 134
-7.84946 8.32066 0.57828 -0.288577 -0.85281 -0.435246 111 120 122
-7.61688 8.25175 0.52098 0.730864 -0.665633 0.150898 127 135 136
-7.42193 8.31119 0.520723 0.849703 -0.371481 0.374175 135 145 144
-7.25739 8.32014 0.503518 -0.000313547 -0.998479 0.0551379 133 142 143
-7.19335 8.38123 0.531288 -0.0816268 -0.995048 -0.05672 153 164 161
-7.2322 8.40453 0.554805 0.184932 -0.979757 0.0766588 152 164 162
-7.02079 8.34413 0.529562 -0.401676 -0.600848 -0.691114 88 104 107
-6.49784 8.34827 0.51994 -0.0554153 -0.411268 -0.909828 137 147 145
-6.40879 8.34657 0.471377 0.0253935 -0.369729 -0.928793 158 168 170
-6.05933 8.45863 0.561678 0.0206994 -0.948413 0.316363 153 166 167
-5.64935 8.47949 0.47532 -0.399342 -0.902429 0.161704 93 112 121
-5.57881 8.53595 0.530881 -0.329311 -0.890561 0.313778 64 85 94
-5.45327 8.58805 0.51748 0.576595 -0.775577 -0.256939 94 99 101
-5.38743 8.62003 0.571442 0.158609 -0.951678 -0.26297 122 127 125
-5.26896 8.70385 0.512257 0.226116 -0.749754 -0.621884 120 120 118
-5.19211 8.71904 0.544977 -0.480847 -0.598844 -0.640447 118 122 121
-5.14874 8.67331 0.541151 0.0608359 -0.796562 -0.601488 122 128 128
-5.07065 8.73447 0.534934 -0.25108 -0.533906 -0.807405 86 89 88
-3.3382 8.94541 0.491166 -0.488772 -0.415406 -0.767164 70 79 83
-2.71609 9.01192 0.48938 -0.273871 -0.479045 -0.833973 83 96 101
-2.59838 9.03388 0.484157 -0.310527 -0.487956 -0.815765 58 71 77
-2.0003 8.92591 0.414163 -0.184836 -0.411403 -0.892515 91 104 112
-1.05891 8.90571 0.428027 0.53592 -0.750185 -0.387314 124 126 130
-0.833983 9.18339 0.434478 -0.484459 -0.420593 -0.767073 60 72 75
0.118046 9.20577 0.422923 0.060159 -0.522845 -0.850302 134 131 131
0.26119 9.2453 0.393026 0.49334 -0.769727 -0.405138 107 108 111
0.39776 9.34575 0.442461 0.338172 -0.70863 -0.619261 88 94 99
0.727679 9.34885 0.444178 0.307119 -0.593225 -0.744152 130 130 129
-9.29907 8.20583 0.511256 -0.199425 -0.954983 0.219628 74 79 79
-9.29907 8.20583 0.511256 -0.199425 -0.954983 0.219628 74 79 79
-9.21879 8.23827 0.5101 -0.387165 -0.87465 -0.291702 91 94 98
-9.23775 8.21174 0.561118 0.246057 -0.963116 0.108921 101 105 109
-9.08871 8.19893 0.533929 -0.138027 -0.961589 -0.237267 135 136 136
-8.99286 8.19295 0.478454 -0.0612157 -0.997867 -0.0226562 148 149 148
-8.25888 8.18519 0.428632 0.0242234 -0.988174 0.151409 112 116 116
-7.76395 7.78137 0.311299 0.980191 0.0352923 -0.194884 133 139 136
-7.92923 8.25276 0.46775 0.884559 -0.232515 -0.404343 139 143 143
-7.83256 8.34126 0.466488 0.0223053 -0.999748 -0.00239936 145 151 149
-7.3444 8.32938 0.459908 0.032549 -0.997535 0.0621639 91 102 103
-7.10727 8.37708 0.479324 -0.151846 -0.937475 -0.313183 141 153 152
-7.06334 8.47555 0.449112 -0.264394 -0.880324 -0.393861 140 154 156
-6.71716 8.34108 0.47106 0.101741 -0.743542 0.660905 114 129 133
-5.96129 8.50131 0.480768 0.0425013 -0.983899 -0.173601 108 121 122
-5.88558 8.50973 0.437575 0.00884633 -0.993683 -0.111879 148 158 159
-5.58747 8.52849 0.454171 0.37503 -0.816134 -0.439634 123 136 139
-5.50557 8.58973 0.443786 0.5655 -0.415336 -0.712535 90 96 96
-5.3944 8.67013 0.494803 0.704718 -0.686084 -0.180727 133 137 137
-5.10419 8.74521 0.50825 0.0564617 -0.749688 -0.659378 99 101 99
-4.38686 8.773 0.464979 -0.433259 -0.471626 -0.768021 126 130 131
-4.28776 8.80219 0.434555 -0.539122 -0.52409 -0.6593 89 96 98
-3.38863 9.06253 0.430655 -0.267006 -0.481789 -0.834618 118 122 123
-3.17564 9.04649 0.451366 -0.464039 -0.398865 -0.790933 61 73 77
-3.04706 9.02839 0.468265 -0.419403 -0.374626 -0.826896 138 146 149
-2.85744 9.01259 0.452098 -0.198077 -0.312869 -0.928913 104 106 106
-2.63337 9.09151 0.450845 -0.475918 -0.432705 -0.765682 66 77 82
-2.29056 9.05145 0.454541 0.0450212 -0.324514 -0.944809 111 115 118
-2.14915 8.94927 0.422509 -0.0356603 -0.381717 -0.923591 89 102 108
-2.06781 8.98033 0.383404 -0.150473 -0.417184 -0.896279 70 87 98
-1.1641 8.85574 0.346687 0.343333 -0.682775 -0.644934 118 120 120
-0.973059 8.98919 0.33036 0.628829 -0.776949 -0.0304086 112 115 117
-0.247174 9.19932 0.325796 0.181619 -0.462249 -0.867952 128 129 128
0.566902 9.34923 0.339219 0.601913 -0.789875 -0.117469 123 122 119
-9.1131 8.23592 0.43236 -0.351484 -0.875377 -0.331924 134 136 136
-8.90102 8.18929 0.428821 -0.0435249 -0.837125 0.545278 125 129 129
-8.82849 8.21957 0.382254 -0.108164 -0.981992 -0.154895 133 137 137
-8.5562 8.21504 0.394311 0.0556588 -0.982973 -0.175116 139 143 142
-8.35786 8.23319 0.389372 -0.0833504 -0.990975 0.104979 120 124 123
-8.17894 8.19441 0.381164 -0.0691504 -0.709097 -0.701712 86 88 90
-7.941 8.32344 0.3866 0.0697379 -0.868991 -0.48989 102 109 112
-7.82794 8.33276 0.367243 0.0440601 -0.557058 -0.829304 119 122 120
-7.35777 8.34475 0.373886 -0.127086 -0.977712 -0.167117 116 129 133
-7.2582 8.31675 0.409448 0.0133671 -0.994899 0.0999852 148 156 156
-7.10143 8.40609 0.381165 -0.0150721 -0.895188 -0.445434 138 146 146
-6.78035 8.39952 0.40183 -0.298704 -0.863063 0.407305 92 109 118
-6.65428 8.47226 0.36272 -0.345661 -0.936493 0.059164 131 142 143
-6.57246 8.47586 0.403229 -0.359778 -0.932911 0.0153598 114 125 124
-5.02344 8.84513 0.4386 -0.523101 -0.585303 -0.619505 105 107 108
-4.73778 8.99072 0.420284 0.100468 -0.447865 -0.888439 86 85 78
-4.22899 8.80531 0.350066 -0.585039 -0.553831 -0.592453 146 154 155
-3.19114 9.14098 0.354438 -0.0364108 -0.413362 -0.909838 134 144 145
-2.91846 9.12471 0.392276 -0.0711135 -0.415442 -0.906836 119 122 124
-2.86725 9.14339 0.372296 -0.573173 -0.406643 -0.711416 111 115 117
-2.3474 9.24809 0.359737 0.658111 -0.751612 -0.0443828 113 119 120
-2.14456 9.08215 0.344222 -0.175621 -0.286774 -0.941763 114 124 127
-2.19228 9.13524 0.31561 -0.518545 -0.30564 -0.798558 125 133 136
-2.00677 9.10036 0.325818 -0.291793 -0.273297 -0.916605 73 90 100
-1.95283 8.96806 0.258748 0.302212 -0.563042 -0.769189 74 90 96
-0.966077 9.14336 0.264631 0.145976 -0.549797 -0.822444 105 102 103
-0.853335 9.09801 0.315031 0.146384 -0.549856 -0.822332 106 109 110
-0.767364 9.29356 0.295537 0.184529 -0.535655 -0.824029 136 132 128
-0.368613 9.36241 0.29871 0.438655 -0.612171 -0.657897 128 124 124
0.324354 9.53096 0.32648 0.239099 -0.656052 -0.715841 128 124 120
0.411598 9.53257 0.295425 0.307404 -0.574724 -0.758416 132 130 126
0.522712 9.55296 0.350252 -0.489168 -0.634549 -0.598384 146 143 139
0.750392 9.59079 0.331617 -0.489849 -0.748115 -0.447629 128 128 127
-9.11274 8.23581 0.320254 0.198115 -0.908519 -0.36789 129 129 126
-9.00171 8.2064 0.370476 -0.0824241 -0.99659 -0.00369775 102 106 104
-8.91216 8.22292 0.325994 0.144241 -0.932501 -0.331114 123 125 125
-8.73038 8.26086 0.303197 -0.364331 -0.750235 -0.551734 135 137 135
-8.64394 8.23577 0.356448 -0.279389 -0.897307 -0.341735 96 99 95
-8.4751 8.26729 0.353011 0.490209 -0.726573 -0.481443 125 127 123
-8.34787 8.23999 0.311809 0.887516 -0.202864 -0.413716 125 124 116
-8.27702 8.22092 0.314372 -0.131844 -0.488272 -0.862675 114 113 107
-8.20681 8.31433 0.293199 0.113555 -0.702772 -0.702295 119 123 122
-8.11833 8.29142 0.339079 0.032862 -0.861849 -0.506099 98 106 107
-7.35433 8.02545 0.225177 0.839054 -0.116723 -0.53138 66 82 87
-7.3976 8.4455 0.299986 -0.0875509 -0.861866 -0.499521 84 93 96
-7.17899 8.41434 0.334518 -0.0977879 -0.816242 -0.569374 118 124 124
-7.1108 8.4123 0.280398 -0.036528 -0.886809 -0.46069 127 131 131
-7.03081 8.42348 0.330582 -0.0562243 -0.99841 0.00407621 93 103 104
-6.74714 8.46305 0.336884 -0.151635 -0.448212 -0.880973 79 94 100
-6.34448 8.46192 0.262571 -0.267671 -0.458269 -0.84755 121 130 131
-5.29831 8.87815 0.347196 0.38202 -0.672949 -0.633404 110 108 103
-5.30237 8.90783 0.344994 0.502133 -0.439034 -0.745058 103 100 95
-5.20189 8.87566 0.373292 -0.176528 -0.568303 -0.80366 95 99 96
-5.02344 8.92354 0.372074 -0.545122 -0.605238 -0.580111 56 63 69
-4.23042 8.89284 0.282659 -0.536802 -0.528742 -0.657477 121 128 131
-3.48677 9.10193 0.271971 -0.101257 -0.420007 -0.901854 118 127 129
-3.33615 9.17107 0.299575 0.108561 -0.357021 -0.927766 116 126 128
-2.6806 9.24812 0.32117 -0.510446 -0.527181 -0.679356 142 153 155
-2.50366 9.24904 0.330965 -0.687795 -0.367398 -0.626064 127 132 129
-2.26406 9.29606 0.324062 -0.745398 -0.439736 -0.501013 111 120 124
-2.09326 9.2422 0.291215 -0.199554 -0.309412 -0.929754 116 126 128
-1.14737 9.08822 0.224256 0.630188 -0.77487 0.0494036 120 116 115
-0.971842 9.26678 0.215935 0.432582 -0.567911 -0.70025 124 118 114
-0.961605 9.1271 0.247172 0.118583 -0.50365 -0.85573 104 101 100
-0.838895 9.24485 0.24936 0.261505 -0.482215 -0.836112 113 107 103
-0.596373 9.38685 0.281519 0.329611 -0.757516 -0.563494 115 113 110
-0.445255 9.39918 0.259573 -0.100534 -0.875226 -0.473151 116 115 113
-0.348644 9.43102 0.216468 -0.374466 -0.901819 -0.215634 129 131 131
-0.309557 9.30624 0.249931 0.148503 -0.498236 -0.854229 132 130 127
-0.276484 9.43124 0.20824 -0.704847 -0.449092 -0.549096 116 119 120
-0.202618 9.33567 0.211515 0.0619051 -0.569869 -0.8194 98 97 95
0.790962 9.70728 0.245224 -0.605973 -0.374468 -0.701834 131 125 123
1.99445 10.0479 0.253466 -0.834563 -0.252234 -0.489778 109 71 56
1.99445 10.0479 0.253466 -0.834563 -0.252234 -0.489778 109 71 56
2.05382 10.0307 0.251359 -0.608687 -0.305234 -0.732347 108 71 57
2.07278 9.99493 0.260421 -0.919191 -0.307737 -0.245737 104 75 64
-9.20245 8.23891 0.264524 0.272617 -0.350747 -0.895911 127 123 119
-8.98228 8.24977 0.25648 -0.0756464 -0.966326 -0.245951 133 136 135
-8.79387 8.25489 0.2483 -0.186032 -0.925835 -0.328969 113 115 118
-8.4931 8.32069 0.246833 0.967422 -0.189471 -0.167916 115 111 104
-8.10832 8.34016 0.261591 -0.196992 -0.908846 -0.367687 74 85 89
-7.97241 8.33238 0.261556 0.169144 -0.925713 -0.338299 119 126 128
-7.9047 8.39974 0.230693 0.0736882 -0.673798 -0.735232 118 119 114
-7.53073 8.45846 0.24956 0.0917434 -0.420263 -0.902753 106 115 114
-7.21691 8.49029 0.217326 0.591851 -0.338894 -0.731343 128 129 126
-7.03692 8.45739 0.240626 -0.0626095 -0.888376 -0.454827 126 130 130
-6.90992 8.52857 0.255265 0.00240877 -0.825432 -0.564496 129 133 132
-6.6016 8.52328 0.234252 -0.171078 -0.672442 -0.720107 113 120 120
-6.13342 8.5825 0.233914 -0.0175578 -0.429888 -0.902711 120 122 121
-5.37331 8.86452 0.281637 0.619645 -0.564822 -0.544992 99 95 90
-5.29494 8.9655 0.26872 0.317386 -0.623999 -0.714067 108 104 99
-5.20861 8.99295 0.311184 -0.191693 -0.584483 -0.788437 117 119 116
-3.41121 9.14515 0.241258 0.220133 -0.314612 -0.923342 132 141 145
-2.50291 9.36839 0.266731 -0.550469 -0.397693 -0.734047 96 104 107
-2.18418 9.30826 0.240845 -0.145359 -0.430965 -0.890584 126 132 136
-1.16427 9.11601 0.136894 0.478797 -0.687504 -0.545977 100 97 94
-1.05125 9.29366 0.141644 0.622448 -0.778351 0.0820269 102 97 92
-1.05112 9.29434 0.141793 0.613504 -0.780988 0.116923 102 97 92
1.97031 10.0019 0.224287 -0.69429 -0.305842 -0.651477 108 62 45
-9.07483 8.25688 0.17802 0.97136 -0.134371 -0.195968 119 120 117
-8.87603 8.26735 0.194112 -0.175534 -0.821845 -0.541996 94 95 97
-8.7674 8.36916 0.215405 0.163539 -0.400741 -0.901478 93 97 99
-8.6162 8.23128 0.164955 0.98288 0.0470734 -0.178134 77 82 81
-8.57727 8.35294 0.178735 0.595503 -0.679062 -0.429245 65 65 60
-8.21182 8.40478 0.2025 0.554169 -0.702393 -0.4467 81 90 92
-8.06621 8.35659 0.175809 -0.255571 -0.944893 -0.2046 98 107 109
-8.05441 8.37404 0.155615 -0.405304 -0.913118 -0.0441063 118 124 124
-7.97745 8.38653 0.170707 0.121549 -0.731902 -0.670482 86 89 87
-7.54276 8.32526 0.182037 0.753135 -0.139665 -0.642869 79 87 85
-7.42963 8.53974 0.193419 -0.0690314 -0.40628 -0.911137 101 101 97
-7.12446 8.48865 0.199795 0.0211565 -0.693499 -0.720147 93 94 92
-7.00103 8.47445 0.148114 0.0354395 -0.655732 -0.754162 119 119 117
-6.50043 8.56786 0.181505 -0.0264538 -0.538902 -0.841953 107 110 110
-6.39535 8.64893 0.149573 0.0141724 -0.473461 -0.880701 93 94 92
-6.28361 8.64348 0.146895 0.0320867 -0.438196 -0.898306 86 88 90
-5.21357 9.11709 0.240408 0.46655 -0.450126 -0.761392 90 90 86
-5.02673 9.10231 0.189951 -0.4997 -0.489453 -0.714658 88 87 81
-4.3235 9.07848 0.212304 -0.0974512 -0.338543 -0.935891 125 129 128
-4.12892 9.19035 0.148078 -0.491181 -0.436859 -0.753588 97 99 99
-4.10425 9.03125 0.115204 -0.583331 -0.500258 -0.639896 100 102 102
-3.46243 9.12105 0.156839 -0.528284 -0.486429 -0.695919 96 104 107
-3.08356 9.24156 0.156073 -0.0394947 -0.431794 -0.901107 77 81 86
-2.18509 9.33554 0.155136 -0.130654 -0.439526 -0.888677 107 92 86
-1.15561 9.24236 0.0496671 0.627133 -0.773388 0.0926037 126 121 116
-0.341678 9.46926 0.127933 -0.831988 -0.530249 -0.16319 82 83 85
0.269677 9.70015 0.0747677 -0.0402868 -0.389665 -0.920075 101 57 42
0.907977 9.85275 0.0953967 0.514927 -0.855607 0.0527901 110 58 31
2.09216 10.5565 0.215827 -0.544953 -0.321317 -0.774455 109 54 24
2.28443 10.5273 0.231425 -0.609167 -0.303746 -0.732567 109 51 21
2.03889 10.1164 0.156981 -0.654234 -0.310016 -0.689832 108 50 22
2.01996 10.0794 0.151397 -0.571116 -0.318611 -0.756514 108 50 22
-9.0647 8.31996 0.0987526 0.64395 -0.667116 -0.374547 122 117 114
-8.97562 8.30533 0.150269 0.106226 -0.864953 -0.490482 118 116 112
-8.82771 8.34584 0.152053 -0.0730618 -0.794735 -0.602544 91 93 95
-8.75431 8.37311 0.11754 0.485023 -0.295579 -0.823035 65 70 68
-8.71856 8.47576 0.131121 0.982624 0.0540691 -0.177561 69 73 67
-8.62979 8.52046 0.126119 0.687013 -0.246933 -0.683401 100 95 86
-8.48863 8.42908 0.165084 0.638468 -0.219268 -0.737754 86 79 72
-8.38341 8.4739 0.143968 0.639816 -0.238013 -0.730743 122 119 114
-8.20183 8.47254 0.12854 -0.128628 -0.612402 -0.780012 105 108 106
-8.19261 8.50572 0.116992 0.0796028 -0.568537 -0.818797 119 120 116
-7.88708 8.51688 0.126963 0.153484 -0.852082 -0.5004 117 115 110
-7.54803 8.53366 0.107008 0.82879 -0.555546 -0.0668974 106 100 92
-7.4259 8.63905 0.143288 0.0904059 -0.42998 -0.898301 125 121 114
-7.26826 8.60867 0.150432 0.297225 -0.492348 -0.818077 110 109 106
-7.16869 8.66749 0.0859431 0.308845 -0.462193 -0.83126 124 120 114
-7.14055 8.60839 0.128781 -0.0568535 -0.685134 -0.726195 125 124 121
-6.79833 8.49277 0.106393 0.508733 -0.322452 -0.798258 127 126 125
-6.51224 8.71228 0.117719 0.633208 -0.241885 -0.735214 101 97 91
-6.31365 8.7256 0.0860661 0.647669 -0.159005 -0.745146 94 99 98
-6.19745 8.73376 0.111161 -0.40585 -0.895273 -0.183772 66 73 74
-5.1237 9.13763 0.124503 -0.30216 -0.669281 -0.678795 117 116 111
-3.95604 9.2048 0.134257 -0.498053 -0.430803 -0.752564 102 103 100
-2.33866 9.53035 0.128346 -0.0517727 -0.422961 -0.904668 98 53 33
-2.28769 9.62794 0.140012 0.269466 -0.442354 -0.855401 99 50 29
-2.18243 9.41198 0.0757057 -0.373843 -0.377375 -0.847248 102 54 29
-1.46426 9.154 -0.0292094 -0.682718 -0.366736 -0.631981 139 142 142
-1.38164 9.06137 -0.0228385 -0.288487 -0.76249 -0.579124 131 135 134
-1.3241 9.14704 -0.0572972 0.560448 -0.797171 -0.224537 112 111 109
-1.25438 9.13697 -0.0524266 0.657741 -0.747691 -0.0912938 109 103 99
-0.265017 9.53459 0.0438891 -0.843744 -0.534758 -0.0461588 87 61 52
0.242137 9.71078 0.0267391 0.547788 -0.832291 0.0849743 109 55 30
0.496122 9.77309 0.0759998 -0.0425512 -0.874178 -0.483738 105 58 35
-9.07222 8.42336 0.0279469 0.952883 -0.018405 -0.30278 96 88 80
-8.92986 8.41897 0.0640887 0.749088 -0.138466 -0.647838 124 117 109
-8.82264 8.5082 0.0473741 0.542391 -0.265989 -0.796908 81 80 71
-8.81108 8.54947 0.0685237 0.67487 -0.245269 -0.695984 89 88 80
-8.54257 8.5834 0.110686 0.0282123 -0.550468 -0.834379 120 112 102
-8.40757 8.64118 0.0705457 0.536377 -0.255275 -0.804447 106 100 93
-8.36144 8.59026 0.105514 -0.0926563 -0.473925 -0.875677 105 102 96
-8.21042 8.60731 0.037472 -0.211758 -0.5727 -0.791943 109 101 93
-8.06822 8.51777 0.0670476 0.0218393 -0.718286 -0.695405 101 97 90
-7.77974 8.494 0.0537162 0.763664 -0.137681 -0.630763 119 115 109
-7.74816 8.64404 0.0760108 0.0246547 -0.605899 -0.79516 116 110 102
-7.66858 8.73955 0.0491704 0.129235 -0.321094 -0.938188 111 98 87
-7.63398 8.80929 0.0564173 0.542095 -0.758333 -0.362027 116 107 98
-7.34441 8.74085 0.0881399 0.0857769 -0.485145 -0.870216 82 79 77
-6.96763 8.59737 0.0503504 0.0482428 -0.456696 -0.888314 115 112 109
-6.90615 8.71105 0.0437635 0.642632 -0.22013 -0.733871 77 76 75
-6.89273 8.8165 0.0377696 0.664705 -0.22226 -0.71328 74 73 69
-6.77224 8.80347 0.0425657 -0.00733991 -0.401385 -0.91588 84 81 78
-6.6346 8.84199 0.0257951 0.306622 -0.287983 -0.90722 109 104 96
-5.13231 9.23435 0.050956 -0.249725 -0.637564 -0.7288 82 78 77
-3.9057 9.25511 0.0330794 -0.296421 -0.584259 -0.755497 86 74 71
-3.82458 9.37158 0.0151305 -0.676786 -0.497343 -0.542781 79 56 48
-2.50509 9.64911 0.0589081 -0.622879 -0.435222 -0.65008 106 50 23
-2.37562 9.65883 0.0763534 -0.549914 -0.406196 -0.729794 108 51 22
-2.01829 9.52298 0.0246988 -0.164005 -0.452506 -0.876551 109 51 20
-1.79406 9.33089 -0.0578777 -0.0844698 -0.417223 -0.90487 104 50 18
-1.48599 9.17041 -0.0771017 -0.434342 -0.512658 -0.740628 87 92 94
-1.45299 9.11656 -0.0784642 -0.548074 -0.472691 -0.690057 116 120 121
-1.34404 9.16866 -0.122081 0.395954 -0.674999 -0.622573 91 88 89
-0.598971 9.71005 -0.0251441 -0.816904 -0.442589 0.369842 107 55 33
-0.621307 9.79623 -0.00159091 0.739906 -0.660344 -0.128395 99 48 22
-0.484652 9.78951 -0.0312235 -0.855772 -0.23477 -0.461019 109 56 30
-0.390652 9.71636 0.0113895 0.0974267 -0.712986 -0.694377 107 58 35
-0.310226 9.7457 -0.0302747 0.0185722 -0.525208 -0.850771 107 55 27
-0.216998 9.52059 -0.0584815 -0.664978 -0.682292 0.30378 106 55 28
0.701763 10.7005 0.146996 -0.281129 -0.396552 -0.873906 113 59 28
1.88626 11.7776 0.257054 -0.735729 -0.193561 -0.649027 117 67 35
1.66946 10.874 0.113859 -0.956438 -0.19085 -0.220914 111 61 26
1.73476 10.8571 0.130428 -0.971921 -0.232184 0.0382123 116 64 31
-8.92702 8.53043 -0.0154002 0.182899 -0.551647 -0.813778 102 93 81
-8.80885 8.66675 -0.0129393 0.200632 -0.300344 -0.932492 111 101 91
-8.68355 8.61343 0.0384133 0.105941 -0.552097 -0.827022 83 73 62
-8.52982 8.68781 0.0228115 0.523147 -0.301574 -0.797101 76 67 59
-8.42859 8.76684 0.0125039 0.0782157 -0.696013 -0.713757 124 116 108
-8.20165 8.77663 0.0258247 0.740745 -0.0325138 -0.670999 114 108 101
-8.03263 8.63569 -0.00864681 -0.305078 -0.920741 -0.243235 113 106 101
-7.84301 8.56402 -0.0216272 -0.109434 -0.469557 -0.876094 88 82 72
-7.75576 8.74308 -0.00584823 0.0716334 -0.710905 -0.699631 89 77 67
-7.60483 8.80183 0.0386564 0.0443581 -0.856139 -0.514839 104 97 88
-7.49934 8.79925 0.0265866 0.549643 -0.295091 -0.781546 73 69 63
-7.26941 8.85706 0.0361957 0.104341 -0.330727 -0.937941 112 106 99
-7.07981 8.91531 -0.00705764 0.856647 -0.401275 -0.324243 101 92 82
-6.84864 8.88903 -0.00947605 0.0216548 -0.354166 -0.934932 111 107 103
-6.74822 8.93397 -0.0417177 -0.157519 -0.505661 -0.84823 108 104 98
-6.53547 8.9495 -0.0398715 -0.316803 -0.603016 -0.732125 107 109 106
