ply
format ascii 1.0
element vertex 710
property float x
property float y
property float z
property float nx
property float ny
property float nz
property uchar diffuse_red
property uchar diffuse_green
property uchar diffuse_blue
end_header
-3.26749 -0.00339542 5.69369 -0.0571146 0.0199623 -0.998168 147 165 166
-3.19709 -0.0335086 5.73784 0.0409601 0.798545 -0.600541 137 157 159
-3.09136 -0.0248146 5.77699 -0.155445 -0.0220029 -0.987599 145 163 164
-3.02363 -0.0244407 5.76514 0.00904886 0.222619 -0.974864 122 140 142
-2.96265 -0.0257151 5.76607 -0.108301 0.157932 -0.981493 143 161 161
-2.89803 -0.025183 5.75749 -0.150718 0.104582 -0.983029 137 154 155
-2.8363 -0.0254672 5.75711 -0.00518844 0.140414 -0.990079 129 148 149
-2.75371 -0.0365725 5.7894 -0.494404 -0.282519 -0.822039 148 167 170
-2.6818 -0.0348938 5.74274 0.104991 -0.134924 -0.985278 150 167 169
-2.67447 -0.0348439 5.7306 -0.00714487 -0.0662691 -0.997776 150 167 170
-2.62054 -0.0350584 5.73866 -0.221777 -0.0423913 -0.974176 128 146 148
-2.61561 -0.0370643 5.7199 -0.144406 -0.0824541 -0.986077 127 144 147
-2.53067 -0.0931519 5.74429 0.126364 -0.0302845 -0.991522 140 155 154
-2.53037 -0.0920945 5.73319 0.00967943 -0.785078 -0.619321 136 151 150
-2.55813 -0.0350622 5.72476 0.0280985 0.148019 -0.988585 142 159 160
-2.47089 -0.0928914 5.74833 0.178187 -0.032517 -0.983459 138 153 153
-2.50122 -0.0416063 5.7489 0.289153 0.248884 -0.924363 134 150 149
-2.41284 -0.0930109 5.76353 0.20182 0.131348 -0.970575 91 112 114
-2.35699 -0.0930289 5.78852 0.343157 0.355296 -0.869488 112 136 140
-2.29514 -0.0925553 5.80015 0.113245 0.0848447 -0.989938 113 135 140
-2.17106 -0.0837841 5.91786 -0.231925 -0.0681735 -0.970342 137 154 153
-2.10984 -0.0837386 5.90368 -0.205326 0.149899 -0.967146 149 164 162
-2.04338 -0.0854393 5.8994 -0.17031 -0.0217956 -0.985149 90 111 112
-2.0564 -0.129926 5.91077 -0.350507 0.372942 -0.859103 137 155 154
-1.98189 -0.0847456 5.88776 0.111549 0.140966 -0.98371 105 127 131
-1.92336 -0.0860094 5.88803 -0.00411262 0.0680104 -0.997676 137 157 161
-1.86438 -0.0862588 5.88374 -0.11376 0.0365375 -0.992836 103 124 128
-1.8351 -0.138063 5.88063 -0.10185 0.151659 -0.983171 121 141 144
-1.77599 -0.1387 5.87129 -0.229567 0.056788 -0.971635 140 155 154
-1.71748 -0.138201 5.86333 -0.144685 -0.0502389 -0.988202 119 135 133
-1.65879 -0.13943 5.86498 -0.0685921 -0.744183 -0.664444 150 167 167
-1.60741 -0.135394 5.90796 0.0980163 0.0957498 -0.990568 101 125 128
-1.54657 -0.13411 5.88491 0.272299 0.216734 -0.937486 80 108 115
-1.45462 -0.122403 5.96786 -0.689891 -0.214859 -0.691293 78 102 107
-1.39589 -0.12297 5.97387 0.150544 0.0260395 -0.98826 121 138 138
-1.33464 -0.122902 5.9766 0.0942935 -0.0519045 -0.99419 131 146 144
-1.35788 -0.173916 5.93358 0.182614 0.114818 -0.976457 107 120 117
-1.23901 -0.182018 5.98957 -0.168394 -0.0507564 -0.984412 117 140 140
-1.17543 -0.181851 6.01157 0.362188 0.205971 -0.909063 70 98 104
-1.1125 -0.179445 5.98862 0.124749 0.207631 -0.97022 78 106 110
-0.924496 -0.201426 6.01201 0.0924771 0.268457 -0.958842 125 141 139
-0.846348 -0.174664 6.03086 0.095263 0.314109 -0.944595 94 115 115
-0.785968 -0.177009 6.0511 0.296282 0.337485 -0.893488 96 120 125
-0.716217 -0.174308 6.05802 0.314973 0.374802 -0.871961 116 138 143
-0.653189 -0.200997 6.04511 -0.0652439 0.364468 -0.928928 90 115 117
-0.589385 -0.2062 6.08136 -0.0202258 0.346534 -0.93782 130 148 147
-0.525376 -0.205524 6.08317 0.0538713 0.263287 -0.963212 139 155 153
-0.418763 -0.230226 6.06652 -0.17878 0.128074 -0.975518 103 127 129
-0.461022 -0.207957 6.08014 0.0838668 0.162911 -0.98307 123 141 141
-0.355835 -0.234839 6.09587 0.0558855 0.114699 -0.991827 87 116 122
-0.145379 -0.213578 6.1331 0.145433 0.336506 -0.930383 130 147 145
-0.0751978 -0.212849 6.13765 0.117063 0.312192 -0.942779 124 143 143
-0.0074992 -0.214808 6.14796 -0.0119028 0.298817 -0.954236 90 112 115
0.0270972 -0.270746 6.13045 0.099725 0.115336 -0.988308 79 107 112
0.240618 -0.283588 6.18094 0.106835 0.336225 -0.935703 130 148 148
0.311748 -0.282029 6.18077 0.113017 0.189506 -0.975354 139 155 153
0.380883 -0.283085 6.18954 0.0440807 0.134173 -0.989977 110 131 133
0.458912 -0.281745 6.19156 0.109659 -0.364684 -0.924651 102 129 135
0.536795 -0.280361 6.19333 0.246483 0.0814685 -0.965717 104 132 137
0.608095 -0.280246 6.21091 0.191742 0.256544 -0.947323 86 111 112
0.726279 -0.2846 6.2409 0.0956885 0.256409 -0.96182 143 161 161
0.800241 -0.282984 6.23953 -0.0246334 0.218678 -0.975486 96 119 122
0.872031 -0.283795 6.24207 0.072566 0.122766 -0.989779 116 142 148
1.03997 -0.315264 6.25474 -0.0124721 0.0516173 -0.998589 106 131 134
1.11841 -0.293532 6.27043 0.0617722 0.12065 -0.990771 143 161 163
1.19309 -0.293517 6.28149 0.107991 0.246755 -0.963042 121 141 143
1.38434 -0.3591 6.32076 0.227602 0.201223 -0.952737 79 111 118
1.59699 -0.372332 6.26089 0.412072 0.0359996 -0.91044 141 161 164
1.82233 -0.342199 6.3 0.133167 0.0632886 -0.989071 102 128 133
1.89418 -0.342109 6.30617 0.132046 0.0679689 -0.988911 131 150 151
1.96745 -0.342213 6.3156 0.13358 0.165547 -0.977113 135 153 153
2.10071 -0.388985 6.30025 -0.380638 -0.318307 -0.868214 85 113 121
2.1646 -0.416245 6.36248 0.123734 0.0953284 -0.987726 67 100 106
2.45632 -0.427034 6.36537 0.182069 0.176054 -0.967396 136 153 156
2.45638 -0.430005 6.37112 0.198987 -0.0543342 -0.978495 136 153 156
2.55942 -0.433791 6.39951 0.111342 0.067311 -0.9915 67 96 103
-5.39084 0.144851 5.9273 -0.0278806 -0.325451 -0.945148 131 142 139
-5.28627 0.136744 5.90925 -0.140423 -0.311673 -0.939756 140 151 152
-5.21032 0.135983 5.91163 0.366114 -0.0799041 -0.927133 117 127 129
-5.14157 0.136099 5.92903 0.191747 -0.130048 -0.97279 142 152 151
-5.06925 0.136008 5.94047 0.190802 -0.226662 -0.955102 109 121 120
-5.00416 0.136177 5.96405 0.259929 -0.156259 -0.952901 125 138 138
-4.94312 0.14126 6.00965 0.721159 -0.359239 -0.592348 132 143 142
-4.88715 0.157973 6.06099 0.719171 -0.371445 -0.587215 86 95 92
-4.78715 0.103878 6.08601 -0.350059 -0.3516 -0.868237 126 112 97
-4.69309 0.10375 6.05681 -0.282304 -0.258171 -0.923933 151 115 83
-4.47736 0.0891444 6.14176 0.293818 -0.0816463 -0.952368 62 28 5
-4.35594 0.0932428 6.0359 -0.163933 0.254208 -0.953155 51 32 13
-4.40955 0.0894611 6.15452 -0.359804 -0.147416 -0.921309 52 30 11
-4.3304 0.105088 6.13307 -0.500854 0.215696 -0.838225 54 47 32
-4.31205 0.0897501 6.10077 -0.464294 0.0637591 -0.883383 58 49 36
-4.24266 0.105648 6.09607 -0.416149 -0.51496 -0.749424 96 103 97
-4.10413 0.109757 5.99767 0.0699265 0.605126 -0.793053 49 66 69
-3.89208 0.0679732 5.79896 -0.519964 0.0160367 -0.854038 129 144 145
-3.80229 0.0682261 5.7374 -0.485492 0.0205071 -0.874 116 133 134
-3.72277 0.0684463 5.70663 -0.234305 -0.00186038 -0.972161 114 130 130
-3.62839 0.0798266 5.81798 0.568638 -0.247175 -0.784573 142 156 155
-3.54048 0.0394788 5.81688 0.151288 -0.125028 -0.980551 111 124 125
-3.49203 0.0395019 5.86541 -0.524621 -0.162874 -0.83561 146 159 158
-3.4333 0.0495749 5.70902 0.00507799 0.0584729 -0.998276 153 166 166
-3.36968 0.0540723 5.70952 -0.0541194 0.0177475 -0.998377 138 155 156
-3.30271 0.0538338 5.70403 0.120562 0.258077 -0.958572 111 131 133
-3.22604 0.0239624 5.7566 0.267723 0.388606 -0.881652 152 168 167
-3.17214 0.0204757 5.7725 0.0177524 0.159134 -0.987097 120 136 135
-3.10531 0.0218449 5.76966 0.00942155 0.0243644 -0.999659 120 136 136
-3.0536 0.0302442 5.76781 -0.0129938 -0.042412 -0.999016 144 158 158
-3.05057 0.0210125 5.81049 -0.603743 0.172257 -0.778346 149 164 164
-2.98898 0.0314404 5.76675 0.0197572 0.14269 -0.98957 140 158 157
-2.92989 0.0290792 5.76387 -0.0662081 0.0691778 -0.995405 97 116 118
-2.86775 0.0290253 5.76258 -0.0584745 0.0342361 -0.997702 133 151 154
-2.805 0.0290181 5.75392 -0.141184 -0.051914 -0.988621 153 169 170
-2.70647 0.0183126 5.73211 -0.289317 -0.0995507 -0.952043 105 122 122
-2.64333 0.0183312 5.72516 -0.0892061 -0.0286539 -0.995601 145 159 159
-2.58897 0.0203965 5.72558 0.0995571 0.026839 -0.99467 151 166 165
-2.44253 -0.0414634 5.75831 0.345306 0.355541 -0.868536 122 140 140
-2.46149 -0.0183552 5.84325 0.298175 0.340021 -0.891895 137 153 152
-2.39542 -0.040984 5.80204 0.766595 0.368994 -0.525524 124 142 143
-2.33303 -0.0405075 5.81089 0.783582 0.432877 -0.445664 138 153 153
-2.32741 -0.0424227 5.81818 0.452407 0.353116 -0.818924 138 154 154
-2.30533 -0.0381003 5.91396 0.319055 0.382223 -0.867242 139 155 156
-2.22585 -0.0311015 5.92225 -0.144758 -0.667552 -0.730356 125 142 143
-2.13795 -0.031309 5.9107 0.0115947 0.213904 -0.976786 127 144 144
-2.07776 -0.0314023 5.91221 -0.114277 0.219675 -0.968857 137 154 154
-2.01255 -0.0334075 5.89703 0.104959 0.194591 -0.975253 126 143 144
-1.95316 -0.0334369 5.89361 -0.0733115 -0.0197221 -0.997114 134 149 148
-1.89397 -0.0337986 5.89052 -0.179508 0.0238234 -0.983468 135 151 150
-1.83465 -0.0339062 5.88313 -0.11818 0.0148832 -0.992881 137 153 154
-1.80514 -0.0863109 5.87831 -0.1947 0.0427943 -0.979929 110 128 131
-1.77574 -0.0340592 5.88103 -0.16867 0.0647587 -0.983543 143 160 160
-1.74601 -0.0864183 5.86934 -0.258623 0.063529 -0.963887 147 162 162
-1.68665 -0.0863859 5.8518 -0.214339 0.136359 -0.967194 146 162 162
-1.63846 -0.0843441 5.92386 -0.581436 -0.0963603 -0.807865 94 117 118
-1.57621 -0.0823644 5.87688 0.275029 0.159588 -0.948098 112 133 137
-1.48799 -0.071695 6.00513 -0.0561244 -0.297031 -0.953217 133 149 151
-1.42682 -0.071513 5.99078 -0.146632 -0.186459 -0.971459 93 112 113
-1.36673 -0.0713754 5.97959 -0.120521 -0.0796227 -0.989513 135 152 151
-1.27354 -0.123681 5.98976 -0.0830893 -0.198321 -0.976609 125 142 141
-1.30514 -0.071391 5.98244 0.12365 0.18349 -0.975214 137 154 152
-1.21174 -0.123146 5.99345 0.251021 0.183793 -0.950373 84 105 106
-1.24518 -0.0688214 5.99508 0.230356 0.402643 -0.885898 103 120 119
-1.14841 -0.122643 6.00679 0.369075 0.265869 -0.89056 139 158 160
-1.07888 -0.120997 6.01244 0.158418 0.104018 -0.981878 106 127 128
-1.07141 -0.118694 6.02985 0.0945116 0.165218 -0.981718 105 126 126
-1.01085 -0.121423 6.03722 -0.136047 0.308729 -0.94137 114 133 133
-0.946127 -0.12135 6.03882 0.033462 0.314028 -0.948824 141 156 155
-0.880155 -0.122006 6.04588 0.143032 0.36053 -0.921716 120 137 137
-0.816872 -0.12289 6.05767 0.150369 0.372427 -0.915799 111 130 131
-0.757788 -0.117397 6.07571 0.302024 0.346242 -0.888199 129 146 146
-0.681394 -0.149463 6.08148 0.176625 0.164091 -0.970504 119 139 141
-0.620111 -0.15099 6.08691 -0.0574145 0.176083 -0.9827 101 123 123
-0.555218 -0.150773 6.08423 -0.0569649 0.154118 -0.986409 142 160 159
-0.557896 -0.150893 6.08271 -0.0573616 0.148911 -0.987185 141 159 158
-0.494086 -0.152851 6.09297 0.0199063 0.29769 -0.954455 135 153 152
-0.387899 -0.177537 6.09073 0.0822338 0.168412 -0.98228 110 133 136
-0.323607 -0.178158 6.09798 0.147902 0.123334 -0.981282 146 166 170
-0.170675 -0.14762 6.15765 0.215017 0.240927 -0.946426 118 136 135
-0.107557 -0.148158 6.15936 0.0986165 0.31516 -0.943901 103 122 122
0.0359686 -0.152659 6.19267 0.55596 0.519443 -0.648913 127 145 144
0.0749643 -0.194852 6.15869 0.228234 0.171425 -0.958396 140 159 161
0.201687 -0.222524 6.19032 0.0317881 0.146596 -0.988686 97 120 121
0.274708 -0.222917 6.19668 0.066455 0.251423 -0.965593 140 159 158
0.345734 -0.224494 6.20137 -0.0460883 0.168267 -0.984664 132 152 153
0.422308 -0.225048 6.19908 -0.0876079 0.128572 -0.987823 122 144 147
0.500644 -0.22229 6.19285 0.12582 0.119881 -0.984783 136 156 158
0.571186 -0.218015 6.21409 0.376467 0.134456 -0.916621 126 146 147
0.687655 -0.221231 6.24917 0.0912407 0.23639 -0.967365 121 142 143
0.764766 -0.222909 6.25697 0.0571657 0.27357 -0.960152 135 156 157
0.761513 -0.220548 6.25204 0.0114577 0.238283 -0.971128 133 155 156
0.836517 -0.22324 6.25702 0.00769436 0.250719 -0.968029 133 154 157
0.929469 -0.253964 6.2559 0.250651 0.210485 -0.944918 139 159 164
1.00316 -0.253387 6.26479 0.145057 0.0715914 -0.98683 117 139 142
1.0721 -0.22882 6.28561 0.0939583 0.235414 -0.967343 133 154 156
1.14481 -0.229248 6.29056 0.0366901 0.250035 -0.967541 109 131 134
1.22672 -0.231232 6.2998 0.139781 0.0792695 -0.987004 132 152 155
1.34775 -0.294559 6.30876 0.263548 0.0421832 -0.963723 126 151 156
1.56055 -0.305597 6.27894 -0.323817 0.19482 -0.925844 142 163 165
1.71834 -0.279946 6.29946 0.367091 0.336105 -0.867339 135 158 163
1.79103 -0.279966 6.30899 0.123256 0.212806 -0.969289 111 135 139
1.86196 -0.279893 6.31681 0.140024 0.208837 -0.967874 110 133 134
1.93403 -0.279868 6.32662 0.179152 0.214779 -0.960091 133 151 152
2.09558 -0.342816 6.36127 0.218708 0.273338 -0.936725 91 115 120
2.20678 -0.294693 6.39022 0.0799367 0.296249 -0.95176 126 144 148
2.49196 -0.36758 6.39108 0.218089 0.564294 -0.796247 91 111 116
2.60486 -0.340576 6.4477 -0.00312153 0.383135 -0.923687 124 143 148
-5.35424 0.219126 5.91616 -0.0834844 -0.209209 -0.974301 119 129 125
-5.2474 0.204303 5.9183 0.0673774 -0.12704 -0.989606 147 155 155
-5.15845 0.207981 5.90424 0.233078 -0.0391092 -0.971671 100 111 111
-5.10487 0.204857 5.94276 0.174238 -0.0845963 -0.981063 121 132 132
-5.03583 0.204809 5.95729 0.222807 0.00671329 -0.97484 139 149 147
-4.9685 0.195615 5.96886 0.368247 0.0102772 -0.929671 89 97 93
-4.91424 0.212517 6.02452 0.713087 -0.357252 -0.603224 108 114 111
-4.80485 0.179219 6.0717 -0.189407 0.30323 -0.933904 131 123 114
-4.68168 0.152501 6.09028 -0.101886 -0.66725 -0.737833 146 108 74
-4.53733 0.156709 5.94665 -0.20856 -0.367364 -0.906392 158 118 82
-4.55698 0.148883 6.14162 0.699511 -0.0300934 -0.713988 92 52 21
-4.343 0.179288 6.11481 -0.502704 0.148114 -0.851675 46 37 21
-4.25735 0.178967 6.07614 -0.270975 0.238177 -0.932654 82 81 76
-4.21412 0.176025 6.14144 -0.30988 -0.445186 -0.840109 123 133 133
-4.19875 0.127437 6.14043 -0.237413 -0.109941 -0.965167 80 93 93
-4.11555 0.128076 6.10545 -0.461766 0.318376 -0.827894 86 103 105
-4.10607 0.114333 6.1122 -0.513089 -0.265411 -0.81627 61 80 83
-4.04027 0.126622 6.0917 -0.589422 0.00235122 -0.807822 99 117 118
-3.84705 0.151761 5.77169 -0.509629 0.290738 -0.809784 93 111 112
-3.68858 0.123364 5.69922 0.0418543 0.599968 -0.798929 132 147 146
-3.46857 0.106421 5.72549 -0.114262 0.0585151 -0.991726 134 148 150
-3.40488 0.110683 5.71754 0.000914415 -0.000792071 -0.999999 117 133 134
-3.40285 0.108769 5.72014 -0.00234585 -0.0278993 -0.999608 120 136 137
-3.33446 0.0925074 5.77962 0.0896256 0.173724 -0.980707 142 160 161
-3.27404 0.0734943 5.79474 -0.391814 0.580099 -0.71412 136 154 155
-3.27013 0.121643 5.79086 -0.284383 0.697671 -0.657558 115 134 135
-3.21506 0.0720141 5.80513 0.00233213 0.0414121 -0.999139 149 166 167
-3.13907 0.0757466 5.78119 0.0285982 0.185423 -0.982243 141 158 157
-3.07332 0.076157 5.7787 0.0861023 0.193881 -0.977239 140 156 156
-3.00689 0.0799254 5.78119 0.171616 0.299449 -0.938551 124 142 141
-2.89815 0.0834414 5.76264 -0.186746 0.100033 -0.977302 145 163 165
-2.83458 0.0846843 5.75656 -0.035364 0.0660503 -0.997189 125 144 145
-2.77252 0.0845998 5.75107 -0.172533 0.0652227 -0.982842 132 151 153
-2.7094 0.0847986 5.74375 0.0972829 0.0154617 -0.995137 151 169 170
-2.53022 0.0203862 5.73563 0.177071 0.0735413 -0.981447 102 121 120
-2.49742 0.0312963 5.8572 0.240944 0.150945 -0.958729 113 129 131
-2.43544 0.0333883 5.86399 0.244059 0.047781 -0.968583 140 154 154
-2.37601 0.0335767 5.86995 0.256025 -0.0230351 -0.966396 133 149 148
-2.33977 0.0156565 5.89509 -0.0249369 0.178221 -0.983674 92 109 108
-2.25282 0.0220724 5.89764 -0.337297 -0.601642 -0.724056 139 152 150
-2.19656 0.0220386 5.92317 -0.167883 -0.0148938 -0.985694 145 160 158
-2.10547 0.0206973 5.91112 -0.248658 0.0348261 -0.967965 97 116 117
-2.04592 0.020664 5.92091 -0.0652249 0.2294 -0.971144 138 152 152
-1.983 0.0197198 5.91789 -0.219609 0.314973 -0.923344 137 151 149
-1.98526 0.020049 5.94631 -0.366464 -0.487251 -0.792648 136 151 149
-1.92166 0.0199591 5.89285 -0.237565 0.112199 -0.96487 108 123 121
-1.80443 0.0179427 5.87431 -0.0352209 -0.0155658 -0.999258 151 165 164
-1.71767 -0.0336963 5.8893 -0.321559 -0.660968 -0.678027 124 143 141
-1.66136 0.00473063 5.93588 -0.666156 0.318241 -0.674507 133 151 150
-1.57869 -0.0198415 5.94813 0.257396 0.27242 -0.927111 126 142 141
-1.51955 -0.0195596 5.97939 -0.701903 0.0359557 -0.711365 109 123 120
-1.45817 -0.0183184 5.95836 0.222776 -0.125343 -0.966778 138 152 152
-1.39698 -0.0187547 5.97318 -0.00824093 -0.233368 -0.972354 137 153 152
-1.33676 -0.018735 5.97937 0.113381 0.0433691 -0.992605 103 122 120
-1.18346 -0.0689982 6.01644 0.422299 0.438275 -0.793459 115 130 129
-1.14259 -0.0160292 6.03337 -0.0447382 0.176571 -0.983271 113 127 126
-1.10801 -0.0683846 6.0302 0.0868888 0.290516 -0.952917 122 137 135
-1.04323 -0.0679087 6.0459 -0.0680747 0.181159 -0.981095 141 156 155
-0.980448 -0.0684588 6.05467 0.0803314 0.268373 -0.95996 120 138 138
-0.916027 -0.0682484 6.06044 0.104532 0.307306 -0.945852 97 117 116
-0.850481 -0.068312 6.07102 0.16684 0.348568 -0.922315 137 152 151
-0.784169 -0.0686568 6.08525 0.187944 0.278501 -0.941867 122 138 137
-0.720582 -0.0664823 6.09548 0.0799053 0.216983 -0.9729 102 119 116
-0.65799 -0.0679647 6.10353 -0.0211559 0.196255 -0.980325 138 152 149
-0.594748 -0.0688936 6.11394 0.026083 0.145908 -0.988954 142 159 158
-0.586162 -0.0983768 6.09908 -0.0155526 0.062103 -0.997949 130 148 148
-0.523932 -0.098042 6.09342 -0.0842463 0.0818785 -0.993075 100 121 121
-0.420975 -0.120912 6.09267 0.113194 0.248859 -0.961903 138 155 155
-0.356159 -0.121858 6.10388 0.147573 0.193882 -0.969862 126 143 144
-0.20676 -0.0858209 6.14699 0.229355 0.0841103 -0.969702 127 143 142
-0.137921 -0.0879594 6.17296 0.172671 0.150032 -0.973486 110 129 128
-0.0339002 -0.146366 6.16107 0.155519 0.395396 -0.905249 138 157 157
-0.0693081 -0.0909143 6.19254 0.0162378 0.354561 -0.934892 124 144 144
0.0015294 -0.0911919 6.1926 -0.0216439 0.391515 -0.919917 130 149 148
0.134013 -0.100776 6.20768 0.0250489 0.221523 -0.974833 129 147 146
0.201741 -0.102126 6.21622 0.0027521 0.173699 -0.984795 125 144 143
0.169069 -0.159745 6.2006 0.188326 0.261717 -0.946593 139 155 155
0.233233 -0.163714 6.21152 0.0591595 0.151843 -0.986633 133 151 151
0.300525 -0.164254 6.21221 -0.0365105 0.13242 -0.990521 97 119 120
0.3801 -0.165908 6.2049 -0.0573809 0.169836 -0.9838 148 168 170
0.463469 -0.162592 6.21215 0.0594958 0.17206 -0.983288 120 138 138
0.534337 -0.16406 6.22509 0.32469 0.268276 -0.906975 100 118 117
0.606081 -0.162701 6.24275 0.258822 0.215439 -0.941593 134 151 150
0.651531 -0.159212 6.257 0.175631 0.198327 -0.964272 131 150 150
0.723952 -0.161116 6.26793 -0.00526216 0.226656 -0.973961 100 124 126
0.796587 -0.165407 6.25228 -0.0515657 0.227797 -0.972342 138 159 162
0.868988 -0.164318 6.25349 -0.000828745 0.206122 -0.978526 137 157 159
0.964518 -0.190483 6.27149 0.111876 0.242792 -0.963606 112 132 132
1.03757 -0.189185 6.27895 0.144926 0.241932 -0.959409 143 161 163
1.10945 -0.165711 6.29846 -0.0233063 0.202485 -0.979008 114 136 139
1.18534 -0.165765 6.30358 0.0485867 0.188962 -0.980782 126 148 150
1.30947 -0.234745 6.32828 0.269969 0.187942 -0.944349 124 144 146
1.38151 -0.234033 6.34437 0.284006 0.161133 -0.945186 125 146 148
1.59398 -0.21633 6.2992 -0.281622 0.134953 -0.949988 130 152 155
1.75222 -0.218182 6.322 0.381789 0.255349 -0.888276 109 129 128
1.95061 -0.235601 6.34031 0.153993 0.270452 -0.950338 102 122 125
2.27364 -0.286927 6.35398 0.01194 0.168805 -0.985577 113 133 135
2.34691 -0.28731 6.35696 -0.0256113 0.187315 -0.981966 129 147 149
2.40777 -0.292719 6.39552 0.155679 0.17548 -0.972096 125 140 142
2.48612 -0.292866 6.41075 0.110512 0.169018 -0.979398 118 134 136
2.56494 -0.293254 6.42864 0.232919 0.148813 -0.961043 121 137 139
2.88863 -0.31361 6.44126 0.10466 0.117787 -0.987508 121 137 139
-5.40237 0.292373 5.91322 -0.0463219 -0.256048 -0.965554 90 102 103
-5.33277 0.289811 5.92574 -0.115298 -0.174009 -0.977971 120 133 134
-5.1365 0.267288 5.92848 0.202192 0.564996 -0.799936 143 154 153
-5.07022 0.267307 5.94926 0.292077 -0.10204 -0.950936 103 114 113
-5.00606 0.268165 5.97504 0.124874 -0.00610974 -0.992154 137 147 145
-4.95576 0.249539 5.96391 0.598523 0.171309 -0.782575 115 123 119
-4.86713 0.256996 6.04285 0.819503 0.159892 -0.550317 103 108 103
-4.85682 0.229091 6.07279 0.756339 -0.206549 -0.620716 110 112 105
-4.78749 0.25296 6.07815 0.347204 -0.424316 -0.836305 141 126 113
-4.72893 0.253129 6.1283 -0.430905 -0.2687 -0.861464 150 121 92
-4.5332 0.249978 6.08867 0.485362 0.673296 -0.55776 83 47 18
-4.48794 0.211135 6.13038 0.806439 -0.0073051 -0.591273 57 25 4
-4.42535 0.238778 6.12594 -0.206907 -0.563001 -0.800137 45 23 6
-4.09187 0.182036 6.09034 -0.557407 0.20555 -0.804392 118 131 131
-3.96307 0.167404 5.93446 -0.198709 0.733822 -0.649631 134 151 152
-3.95366 0.180351 6.00682 -0.251979 0.457092 -0.852979 133 151 152
-3.85993 0.166248 5.8443 -0.401877 0.0618123 -0.913605 115 132 133
-3.80854 0.162944 5.88439 -0.496238 -0.235224 -0.835714 150 165 165
-3.79012 0.162056 5.84057 -0.356262 -0.0734816 -0.931492 147 163 162
-3.71268 0.16153 5.81859 0.0590309 0.183833 -0.981183 106 122 120
-3.5905 0.162695 5.80845 -0.253699 -0.556374 -0.791255 90 111 116
-3.50565 0.162929 5.74147 -0.0891343 -0.0178237 -0.99586 103 124 128
-3.44089 0.165277 5.73045 0.0362854 -0.00960819 -0.999295 91 111 116
-3.43951 0.162942 5.73258 0.0601677 -0.067734 -0.995887 91 112 116
-3.37413 0.165323 5.72086 -0.0648774 -0.121522 -0.990466 140 157 160
-3.37252 0.163001 5.72245 -0.0633259 -0.0852235 -0.994347 141 157 160
-3.37625 0.165703 5.71978 -0.0594558 -0.185651 -0.980815 138 155 158
-3.30915 0.165292 5.72446 0.0410889 -0.245445 -0.968539 141 156 157
-3.09831 0.133547 5.77097 0.00530423 0.166907 -0.985958 120 143 145
-3.03648 0.133491 5.77526 0.176712 0.036612 -0.983581 82 104 108
-2.98084 0.134812 5.8006 -0.611082 0.113478 -0.783391 120 139 141
-2.97022 0.139005 5.77075 -0.0873437 0.0935897 -0.991772 128 146 148
-2.90485 0.13814 5.76417 -0.168889 -0.0124568 -0.985556 144 160 160
-2.80311 0.138871 5.75898 0.148702 0.062768 -0.986888 98 120 124
-2.74204 0.137149 5.75312 -0.178218 -0.0853506 -0.980282 96 120 125
-2.67649 0.137889 5.74164 0.0458969 0.152087 -0.987301 105 129 134
-2.61611 0.137972 5.73673 0.0952818 0.000154406 -0.99545 94 117 120
-2.61302 0.137957 5.73565 0.100142 0.0209076 -0.994753 95 117 120
-2.64564 0.0849432 5.737 0.04519 0.0403112 -0.998165 132 150 150
-2.58526 0.0859268 5.73488 0.179597 -0.0430331 -0.982799 116 134 134
-2.52523 0.0844059 5.84447 0.249634 0.0963729 -0.963533 136 150 151
-2.47157 0.0829374 5.87569 0.342486 0.0047541 -0.939511 120 136 135
-2.40707 0.0859928 5.87496 0.274134 0.00336598 -0.961686 105 123 123
-2.34939 0.0818868 5.90411 0.0683832 0.0535379 -0.996222 145 161 161
-2.28862 0.0753805 5.94061 -0.191375 0.00524437 -0.981503 139 156 155
-2.22733 0.0753693 5.92934 -0.159254 -0.0116593 -0.987169 108 126 124
-2.13338 0.0734464 5.92292 -0.073787 0.0951472 -0.992725 131 148 148
-2.07321 0.0735707 5.92908 0.226347 0.0970933 -0.969195 128 144 143
-2.01069 0.0736252 5.92872 -0.139067 0.319128 -0.937453 102 120 120
-1.94942 0.0735779 5.90188 -0.299952 -0.0247671 -0.953633 140 157 158
-1.95155 0.0735264 5.90994 -0.225867 -0.00565404 -0.974142 140 157 158
-1.89153 0.0735386 5.89297 -0.260874 0.0497016 -0.964093 144 161 160
-1.89631 0.0739578 5.95871 -0.580719 0.162066 -0.797809 148 164 164
-1.82629 0.0734736 5.87626 0.488659 0.323976 -0.810094 108 126 125
-1.76198 0.0733155 5.88709 -0.0462411 0.152526 -0.987217 129 147 147
-1.75497 0.0487872 5.94764 -0.0790621 0.126373 -0.988827 128 147 147
-1.69428 0.0563855 5.96571 -0.572421 0.328227 -0.7514 133 151 152
-1.60858 0.0327153 5.97086 0.171227 0.0118657 -0.98516 143 158 156
-1.60931 0.0320077 5.97916 -0.0484342 0.196376 -0.979332 143 158 156
-1.63164 0.0565689 5.95938 0.0566859 0.251967 -0.966074 119 135 134
-1.5502 0.0316703 5.98433 -0.171359 0.0484272 -0.984018 125 140 138
-1.54935 0.032481 5.97439 -0.121945 -0.0173123 -0.992386 125 139 138
-1.48958 0.0323789 5.97866 -0.00764702 -0.0168676 -0.999828 122 137 135
-1.42822 0.0329801 5.97097 -0.0550465 -0.103097 -0.993147 135 149 147
-1.36726 0.0335544 5.98479 0.441818 0.289701 -0.849041 130 147 145
-1.30731 0.0330228 6.01654 0.637317 0.297104 -0.711025 95 112 111
-1.3024 0.0339913 5.99791 0.611219 0.28686 -0.737647 94 112 110
-1.24279 0.0174598 6.04202 0.603157 0.096923 -0.791711 92 108 106
-1.18754 0.040807 6.05906 -0.719796 0.261506 -0.643046 115 133 132
-1.07686 -0.0159219 6.036 -0.00833476 0.263223 -0.964699 133 147 146
-1.07553 -0.0150227 6.05167 0.0696266 0.311666 -0.947637 132 147 146
-1.10901 0.0381167 6.05484 -0.473344 0.34587 -0.810136 136 155 154
-1.01322 -0.0153741 6.06603 0.0261605 0.174406 -0.984326 136 152 151
-0.949209 -0.0140487 6.06778 0.112155 0.197052 -0.973957 112 131 131
-0.886779 -0.0161735 6.08896 0.258452 0.276559 -0.92559 124 143 142
-0.82151 -0.014284 6.10294 0.201828 0.357322 -0.911914 113 130 129
-0.752048 -0.0128609 6.1086 -0.0281732 0.268143 -0.962967 139 156 155
-0.689235 -0.0144938 6.11762 -0.0573156 0.174823 -0.98293 140 157 155
-0.626225 -0.0146397 6.11491 -0.0382178 0.0695597 -0.996845 108 127 126
-0.465022 -0.0432108 6.1038 0.16241 0.00167616 -0.986722 134 153 153
-0.39394 -0.041613 6.10999 0.00460419 0.215453 -0.976503 121 141 141
-0.3234 -0.0402611 6.12139 0.295598 0.48369 -0.823812 126 144 144
-0.250688 -0.0418735 6.13739 0.313594 0.317852 -0.894779 105 121 120
-0.164381 -0.0185273 6.2084 0.178947 0.343227 -0.922048 122 140 140
-0.10349 -0.0316316 6.19784 0.211024 0.278476 -0.936974 139 156 156
-0.033674 -0.0351968 6.22128 0.545848 0.299455 -0.782545 100 120 120
0.105151 -0.0391844 6.21858 -0.152831 0.0962177 -0.983557 123 145 147
0.0736492 -0.0913493 6.19361 0.00047704 0.403291 -0.915072 127 146 144
0.170033 -0.0393364 6.21229 0.0475066 0.119838 -0.991656 90 114 117
0.136471 -0.0953535 6.2085 0.561432 0.137565 -0.816008 132 150 150
0.23533 -0.0459144 6.22904 -0.0700361 0.134583 -0.988424 120 142 143
0.301904 -0.0467043 6.22943 -0.0577336 0.152124 -0.986674 145 164 164
0.268086 -0.103596 6.22057 -0.0181231 0.182245 -0.983086 132 153 153
0.335054 -0.104923 6.22087 0.0125276 0.169257 -0.985492 140 162 163
0.414501 -0.108211 6.21384 0.108018 0.307594 -0.945367 116 138 139
0.411158 -0.108715 6.21947 0.0836268 0.302857 -0.94936 115 137 138
0.498163 -0.104876 6.24256 0.0022376 0.339396 -0.940641 128 149 149
0.566164 -0.0996707 6.24935 0.294098 0.36428 -0.883633 108 128 129
0.687807 -0.0993857 6.27748 0.0286992 0.175384 -0.984082 135 154 156
0.759555 -0.101257 6.27478 -0.0774785 0.147169 -0.986072 134 156 159
0.832253 -0.102747 6.26344 0.103584 0.0958861 -0.989988 92 119 122
0.95644 -0.114064 6.28422 0.0932446 0.156486 -0.983269 127 149 151
0.998226 -0.127827 6.29616 0.193876 0.236991 -0.95197 110 132 133
1.06856 -0.103364 6.31886 0.0941722 0.228447 -0.968991 108 132 134
1.14547 -0.102588 6.31573 0.0357093 0.249398 -0.967742 141 160 163
1.25892 -0.16565 6.31078 0.114512 0.161203 -0.980255 134 155 155
1.26191 -0.167998 6.3144 0.12789 0.131933 -0.982974 135 156 156
1.33903 -0.166695 6.32445 0.259446 0.243467 -0.934565 108 128 127
1.41184 -0.167947 6.35187 0.176644 0.210291 -0.961548 122 141 143
1.57 -0.154607 6.30827 -0.369886 0.240004 -0.897542 129 153 157
1.64768 -0.152139 6.29326 0.408223 0.137918 -0.902404 123 142 143
1.72043 -0.151745 6.30136 0.499879 0.345432 -0.794228 125 144 144
1.91294 -0.174086 6.36024 0.141788 0.374255 -0.916422 120 141 142
1.98696 -0.174058 6.36586 0.0864783 0.316737 -0.944563 124 144 146
2.13664 -0.175282 6.38846 0.138263 0.205872 -0.968762 131 150 151
2.3686 -0.229968 6.39712 0.135552 0.15362 -0.978788 94 112 113
2.44631 -0.230229 6.41365 0.109628 0.139886 -0.98408 125 142 142
2.52384 -0.230468 6.42961 0.224538 0.119402 -0.967122 127 143 143
2.78437 -0.245805 6.40821 0.111356 0.182105 -0.976953 101 119 122
2.85749 -0.245867 6.41833 0.219334 0.0826026 -0.972147 123 140 143
-5.36534 0.36646 5.90362 -0.0884361 -0.201698 -0.975447 63 83 88
-5.29999 0.363436 5.92064 -0.139006 -0.151352 -0.978657 80 98 105
-5.2028 0.311728 5.92174 0.04744 -0.219733 -0.974406 131 141 141
-5.2162 0.362634 5.92067 -0.0816104 0.324416 -0.942387 140 151 152
-5.0997 0.326951 5.92905 -0.0748172 0.243259 -0.967072 126 137 136
-4.9761 0.33463 5.98035 0.610243 -0.298395 -0.73387 85 102 103
-4.91062 0.294089 5.98783 0.878083 0.131327 -0.460135 106 117 113
-4.87702 0.340191 6.03667 0.577242 0.453176 -0.679281 64 75 72
-4.79626 0.337029 6.05185 0.496734 -0.170883 -0.850914 129 120 113
-4.73348 0.310861 6.04733 -0.076952 -0.4431 -0.893163 164 141 121
-4.63891 0.310521 6.0182 0.19863 -0.0208807 -0.979852 152 120 91
-4.35157 0.266968 6.09478 -0.211818 -0.551566 -0.806788 42 30 14
-4.32337 0.263989 6.18527 -0.463069 0.214673 -0.859932 45 44 34
-4.33169 0.293049 6.18606 -0.46425 0.188803 -0.865347 42 40 28
-4.33271 0.293008 6.18838 -0.472349 0.0939752 -0.876388 42 40 28
-4.32944 0.293139 6.18097 -0.46638 0.160301 -0.869939 42 40 28
-4.22689 0.264182 6.15637 -0.220144 -0.401765 -0.888888 90 101 102
-4.1636 0.263255 6.17913 -0.283147 -0.480519 -0.830018 71 87 87
-3.82185 0.229253 5.81985 -0.444232 0.165845 -0.880428 100 121 122
-3.73867 0.229133 5.77487 -0.352967 -0.230326 -0.906843 107 123 122
-3.64812 0.237404 5.73148 0.391369 0.265085 -0.881227 144 160 160
-3.54701 0.221726 5.76612 -0.173656 -0.0652837 -0.98264 57 86 93
-3.47381 0.221651 5.73479 -0.0732014 0.00673169 -0.997294 71 100 110
-3.41255 0.221697 5.74209 -0.00872834 0.182402 -0.983185 144 166 172
-3.3437 0.221657 5.73119 -0.0159504 0.0887619 -0.995925 127 143 145
-3.28233 0.220604 5.73508 0.131118 -0.331967 -0.934134 118 135 135
-3.13384 0.188528 5.79201 -0.157617 -0.666609 -0.728553 67 100 106
-3.0682 0.188532 5.77929 -0.038814 0.0488172 -0.998053 80 108 115
-3.00581 0.189459 5.7762 0.0321537 0.0750679 -0.99666 139 158 164
-3.00233 0.193597 5.77539 -0.0209447 0.0270586 -0.999414 143 162 167
-2.94121 0.189463 5.77145 -0.0807987 -0.0556971 -0.995173 124 140 139
-2.93897 0.193597 5.77286 -0.144345 -0.0669452 -0.98726 123 138 137
-2.83339 0.191423 5.75647 -0.071182 -0.116172 -0.990675 152 169 171
-2.77965 0.172811 5.82007 0.421518 0.121889 -0.898591 88 113 119
-2.70995 0.192447 5.75509 -0.124959 -0.0134114 -0.992071 69 99 109
-2.64806 0.192446 5.75078 -0.0771658 0.130331 -0.988463 89 117 124
-2.5843 0.192447 5.74337 -0.00761761 0.2757 -0.961213 147 166 169
-2.55564 0.138821 5.74582 0.303684 0.0299574 -0.952302 134 151 151
-2.51825 0.139586 5.88786 0.259926 0.291891 -0.920455 123 136 134
-2.46198 0.139413 5.91641 0.0789095 0.1296 -0.988421 119 136 135
-2.4001 0.139504 5.90706 0.0523632 0.00331067 -0.998623 79 102 104
-2.3402 0.138996 5.94587 -0.344912 -0.488839 -0.801294 87 110 115
-2.28096 0.139214 5.95039 -0.0952491 0.702315 -0.705465 75 100 104
-2.16406 0.125939 5.92652 -0.140836 -0.0763352 -0.987086 140 157 156
-2.10285 0.126078 5.91771 0.109077 -0.0449668 -0.993016 128 141 139
-2.03781 0.126347 5.93525 0.314403 -0.0326783 -0.948727 110 126 127
-1.98098 0.12835 5.91816 -0.348701 -0.645021 -0.679968 70 94 100
-1.98802 0.127646 5.96607 -0.161724 -0.729484 -0.664604 72 96 102
-1.91748 0.125555 5.89657 -0.104373 0.129705 -0.986044 98 122 125
-1.85567 0.125527 5.89087 -0.0859255 0.349132 -0.933126 81 105 108
-1.73014 0.137922 5.94042 -0.0878896 0.259497 -0.961736 136 150 149
-1.66587 0.137746 5.99909 -0.725621 -0.0292925 -0.687471 130 145 143
-1.66965 0.135909 5.98313 -0.190161 -0.742102 -0.642746 129 144 142
-1.57923 0.0846872 5.99879 -0.612644 0.0957105 -0.784542 107 128 128
-1.51928 0.0845872 5.9926 -0.21056 0.105388 -0.971884 143 160 160
-1.45908 0.0846192 5.98257 -0.128607 0.0837134 -0.988156 112 129 128
-1.4078 0.0940317 5.97647 0.295593 0.0517971 -0.953909 82 100 98
-1.39899 0.0845307 5.98531 0.350433 0.185641 -0.918005 90 107 105
-1.34234 0.109132 5.99665 0.406752 0.272297 -0.872013 108 121 118
-1.27784 0.0934205 6.01714 0.51062 -0.0221223 -0.859522 108 120 119
-1.21748 0.0939735 6.0715 -0.0363194 0.0901128 -0.995269 90 109 110
-1.15689 0.0936243 6.06156 -0.0417866 0.130178 -0.99061 77 102 106
-1.08906 0.0948116 6.08934 0.0423786 0.281807 -0.958535 74 100 104
-1.01945 0.0923197 6.09418 0.232071 0.347934 -0.908342 119 139 140
-0.984537 0.0365113 6.09526 0.18553 0.218255 -0.958094 120 137 136
-0.954541 0.0922237 6.1139 0.245862 0.187215 -0.951053 118 133 131
-0.919753 0.0364773 6.10944 0.34135 0.279961 -0.897275 137 151 150
-0.860224 0.0426572 6.11489 0.241142 0.221153 -0.944956 108 124 124
-0.791027 0.0436289 6.12321 0.0350156 0.248404 -0.968023 83 105 105
-0.719899 0.0401439 6.12471 -0.178899 0.0415366 -0.98299 114 136 138
-0.43096 0.0213596 6.10112 0.257666 0.258532 -0.931005 101 122 122
-0.363309 0.019115 6.13636 0.270877 0.215746 -0.938125 74 99 101
-0.294633 0.0178853 6.1648 0.268942 0.345407 -0.899091 84 107 110
-0.219862 0.0232337 6.14973 -0.0521076 0.503666 -0.862326 95 116 118
-0.144843 0.0331566 6.22384 0.166031 0.36572 -0.915796 120 137 137
-0.0727453 0.0362444 6.21861 0.223406 0.101012 -0.969477 122 138 137
0.0727586 0.0174242 6.22207 -0.0129249 0.132869 -0.991049 71 102 107
0.137434 0.0202117 6.19542 -0.111744 0.00683172 -0.993714 78 109 115
0.202665 0.0160102 6.21729 -0.0370119 0.238466 -0.970445 133 158 162
0.2704 0.0124889 6.23869 -0.0360091 0.184884 -0.9821 125 145 146
0.304074 -0.04608 6.22904 -0.0529475 0.181766 -0.981915 145 164 164
0.338524 0.0114702 6.24313 0.0633774 0.210108 -0.975622 115 135 134
0.371481 -0.0495025 6.24754 0.505088 0.293203 -0.811737 117 138 139
0.375068 -0.0484404 6.22896 0.0642518 0.174277 -0.982598 113 135 136
0.440411 -0.0493056 6.24556 0.260125 0.151469 -0.953621 73 99 102
0.521621 -0.0180923 6.31252 0.102795 0.480719 -0.870829 63 93 98
0.720182 -0.0392822 6.28672 -0.0810093 0.162829 -0.983323 122 141 143
0.795442 -0.042061 6.28459 -0.106774 0.16178 -0.981033 132 154 158
0.869397 -0.0458618 6.31294 0.0503386 0.119668 -0.991537 73 103 110
0.927247 -0.0501411 6.26567 0.42591 -0.176251 -0.887433 77 108 114
0.99649 -0.0507665 6.30286 0.318677 0.561098 -0.763946 78 107 112
1.10441 -0.0894805 6.31509 0.043631 0.187726 -0.981252 135 156 158
1.22018 -0.102637 6.31915 0.125122 0.13074 -0.98349 97 119 122
1.29165 -0.10296 6.33538 0.397829 0.352423 -0.847071 98 124 126
1.3705 -0.103119 6.34532 0.106036 0.15576 -0.982087 116 139 142
1.6023 -0.0889183 6.3148 -0.286956 0.143772 -0.947093 121 142 145
1.67992 -0.0884996 6.31253 0.337242 0.126893 -0.932827 93 115 118
1.75083 -0.0883948 6.33055 0.284585 0.123529 -0.950659 113 136 140
1.82216 -0.0882325 6.34116 0.126568 0.273728 -0.953443 90 113 116
2.01481 -0.11157 6.37477 0.108129 0.280749 -0.953671 110 130 133
2.08627 -0.112626 6.39459 -0.031274 0.232731 -0.972038 81 105 109
2.17526 -0.112913 6.40875 0.0800966 0.189149 -0.978676 108 132 138
2.41043 -0.167578 6.4208 0.134854 0.172585 -0.97572 121 139 140
2.4843 -0.166692 6.43165 0.0746149 0.182093 -0.980446 98 118 120
2.54631 -0.166311 6.42628 0.164426 0.185419 -0.968805 126 146 149
2.65709 -0.176473 6.43481 -0.128125 0.154979 -0.979574 101 121 124
2.73064 -0.17664 6.42818 0.0349647 0.0814223 -0.996066 125 143 147
3.00645 -0.215468 6.47371 0.315709 0.230287 -0.920487 134 151 153
2.92996 -0.213006 6.43638 0.222002 0.179146 -0.958447 126 143 144
-5.38852 0.422543 5.90828 0.172226 0.0310101 -0.984569 72 92 96
-5.0636 0.391421 5.95244 0.238027 -0.0424187 -0.970332 133 148 150
-4.93025 0.379233 6.00283 0.882833 0.136538 -0.449404 51 71 76
-4.82351 0.396996 6.02979 0.052114 -0.0913999 -0.99445 103 103 102
-4.67917 0.37351 6.01917 0.0241672 0.799515 -0.60016 149 121 95
-4.42579 0.340914 6.20702 -0.337146 -0.619898 -0.708561 34 25 11
-4.25419 0.336298 6.18036 -0.184589 0.482254 -0.856363 90 97 95
-4.0593 0.318193 6.03036 -0.499815 -0.216335 -0.83868 109 124 126
-4.00887 0.288355 5.96452 -0.575881 -0.152076 -0.803264 117 134 137
-3.89971 0.281434 5.87412 -0.555185 -0.00448702 -0.831715 84 106 110
-3.80058 0.299434 5.81739 -0.385667 0.563273 -0.730742 97 118 122
-3.63415 0.302864 5.76759 -0.306427 0.197528 -0.931174 84 104 104
-3.59237 0.259761 5.78536 -0.0462567 0.0250815 -0.998615 71 95 100
-3.50802 0.280388 5.73715 0.0036008 -0.0503182 -0.998727 87 112 120
-3.44994 0.278357 5.76077 0.315691 0.413377 -0.854084 84 109 118
-3.37402 0.277938 5.74876 -0.257917 0.419278 -0.870451 131 152 155
-3.24043 0.273956 5.6969 -0.149567 -0.138502 -0.979003 149 168 169
-3.1655 0.244196 5.78774 -0.169019 0.0272001 -0.985237 80 110 116
-3.10065 0.2442 5.78233 -0.0994278 -0.0253463 -0.994722 75 106 114
-3.03629 0.24419 5.77444 -0.00852121 0.0464917 -0.998882 98 121 128
-3.03366 0.248408 5.77623 -0.0298486 0.0182591 -0.999388 97 119 127
-2.96906 0.247366 5.76992 -0.047662 0.0773009 -0.995868 140 156 160
-2.90562 0.247462 5.76392 -0.184375 0.0123054 -0.982779 124 139 140
-2.80488 0.245508 5.75864 -0.0513773 0.142502 -0.98846 124 145 148
-2.74152 0.24709 5.75913 -0.029552 0.201258 -0.979092 83 111 118
-2.67836 0.246926 5.75652 0.0287348 0.133746 -0.990599 88 116 124
-2.67934 0.247106 5.75339 0.0362637 0.074057 -0.996594 88 117 125
-2.61565 0.246947 5.75438 -0.0190403 0.177195 -0.983992 97 121 127
-2.6156 0.246904 5.75527 -0.0311804 0.194336 -0.980439 98 121 127
-2.61753 0.247095 5.75414 -0.00647599 0.206236 -0.978481 96 120 126
-2.52421 0.192443 5.76589 0.369523 0.083009 -0.925507 106 121 118
-2.55363 0.245997 5.76702 0.299312 0.0589387 -0.952333 130 147 147
-2.49631 0.246003 5.78595 0.409704 0.0180481 -0.91204 117 132 131
-2.31173 0.193112 5.96163 -0.141737 0.0755097 -0.98702 59 89 98
-2.27837 0.232803 5.86884 0.0916185 0.217224 -0.971812 79 105 113
-2.19519 0.178811 5.92871 -0.110597 -0.747222 -0.655307 149 167 168
-2.06529 0.1796 5.91376 -0.0166757 -0.167613 -0.985712 131 144 143
-2.00692 0.179567 5.93026 0.167728 0.104902 -0.980236 125 144 148
-1.95869 0.185992 5.97159 0.0664278 0.0994881 -0.992819 70 98 105
-1.88407 0.177217 5.89027 -0.0580236 0.227392 -0.972073 62 92 99
-1.82156 0.177745 5.94104 -0.744053 -0.0135658 -0.667983 124 145 148
-1.76005 0.190012 5.94257 -0.0306567 0.225594 -0.973739 132 147 148
-1.69836 0.190412 6.03706 -0.317549 -0.089394 -0.944019 122 135 133
-1.70079 0.189998 5.96932 -0.00902663 0.177532 -0.984074 105 119 119
-1.60589 0.137699 5.99967 -0.0941534 -0.113049 -0.989118 95 116 118
-1.61137 0.136286 6.00071 -0.106051 -0.0575012 -0.992697 98 119 120
-1.63733 0.190416 6.01318 -0.220216 -0.0952264 -0.970792 150 165 165
-1.64372 0.189973 6.01156 -0.13364 -0.0858402 -0.987305 149 164 164
-1.54757 0.137816 5.98984 -0.14587 0.0856272 -0.985591 77 102 106
-1.56228 0.14756 5.94188 -0.523196 -0.0649006 -0.849738 74 99 103
-1.57707 0.190417 5.99887 -0.183355 -0.0778174 -0.979962 90 113 118
-1.58374 0.189972 5.99826 -0.270707 -0.122212 -0.954873 98 120 125
-1.48839 0.136971 5.98603 0.147214 0.360096 -0.921227 78 101 104
-1.50324 0.148257 5.97496 -0.101311 0.20493 -0.973519 72 98 102
-1.43943 0.148325 5.99405 0.217884 0.333213 -0.917331 79 102 103
-1.37495 0.148068 5.99461 0.0946798 0.56325 -0.820844 115 130 130
-1.23319 0.139587 6.07683 0.318461 0.268875 -0.909004 138 153 154
-1.12347 0.148841 6.10195 0.089007 0.250928 -0.963905 64 94 103
-1.0583 0.148835 6.1097 0.0991382 0.306165 -0.946802 91 116 122
-0.989567 0.149439 6.12614 0.217493 0.412337 -0.884689 130 147 146
-0.990808 0.148838 6.12648 0.148679 0.42852 -0.891215 130 148 147
-0.918382 0.152808 6.14151 0.161603 0.326222 -0.931377 110 125 123
-0.896195 0.100127 6.12554 0.229951 0.224295 -0.947003 112 126 124
-0.823736 0.097428 6.13202 0.120089 0.0749121 -0.989933 132 151 153
-0.760196 0.0975259 6.12658 -0.0597906 0.113629 -0.991722 78 105 111
-0.760775 0.09759 6.1269 -0.0681873 0.116655 -0.990829 78 105 111
-0.680877 0.0785694 6.13361 -0.138091 0.125361 -0.982454 81 108 113
-0.646662 0.134023 6.13262 -0.0592871 0.168897 -0.983849 102 127 132
-0.611373 0.0766145 6.12531 0.0155295 0.202655 -0.979127 137 159 161
-0.544858 0.0760573 6.13801 0.125047 0.248173 -0.960611 122 139 139
-0.474949 0.0762905 6.14476 0.112522 0.344514 -0.932014 119 136 135
-0.335119 0.0768787 6.18441 0.43904 0.555181 -0.706413 60 90 94
-0.188368 0.0697709 6.21099 0.215018 0.404442 -0.888929 135 154 156
-0.111997 0.0938953 6.24913 0.0965457 0.271756 -0.957511 109 126 126
-0.00222122 0.0369129 6.23014 -0.013002 0.137667 -0.990393 123 146 148
-0.0352867 0.0946503 6.23541 -0.012563 0.0230892 -0.999654 136 155 155
0.031235 0.0941165 6.23845 -0.169946 -0.0376798 -0.984733 90 116 120
0.0304011 0.0938965 6.24012 -0.683874 -0.0245629 -0.729187 93 119 123
0.105307 0.0721609 6.23191 -0.0281159 0.0924947 -0.995316 75 108 117
0.170289 0.0720778 6.22521 0.0162047 0.149066 -0.988695 93 122 129
0.237 0.071991 6.24269 -0.0122528 0.136389 -0.99058 138 160 163
0.304921 0.0708344 6.25017 0.068278 0.106032 -0.992016 112 131 131
0.304895 0.0703966 6.2503 0.0700016 0.103382 -0.992175 111 130 130
0.373226 0.0714175 6.26206 0.213243 0.245601 -0.945626 122 141 142
0.40976 0.0113575 6.24852 0.124829 0.263697 -0.956495 122 144 147
0.553558 0.0321744 6.28326 0.245878 0.238717 -0.939445 67 99 106
0.558606 0.0331365 6.27936 0.288241 0.310896 -0.905683 70 102 109
0.592826 0.0241633 6.29676 0.305068 0.247803 -0.919526 104 132 138
0.685685 0.0209698 6.30187 -0.0564651 0.180847 -0.981889 114 135 136
0.756508 0.0208522 6.29728 -0.0744965 0.194638 -0.978042 122 143 145
0.831811 0.0206799 6.29714 0.100692 0.223677 -0.969448 122 146 153
0.914254 0.0170735 6.32157 0.189871 0.243794 -0.951059 62 94 104
1.06697 -0.0283784 6.33673 0.0729153 0.209931 -0.974994 139 162 166
1.06939 0.0234912 6.33255 0.0764789 0.222107 -0.972018 135 157 161
1.14363 0.0239834 6.33501 0.0955966 0.220532 -0.970684 110 129 130
1.14012 -0.0260517 6.32692 0.0571461 0.154812 -0.98629 104 122 124
1.25609 -0.0392972 6.33035 0.136254 0.0615817 -0.988758 105 130 134
1.39437 -0.0508479 6.36914 0.170837 0.345325 -0.922803 75 104 110
1.55566 -0.0256993 6.33798 -0.269926 0.261938 -0.926568 114 136 139
1.64026 -0.0252991 6.30106 0.324766 0.310843 -0.893255 124 147 151
1.71038 -0.0253594 6.33676 0.293458 0.161314 -0.942263 70 98 104
2.04567 -0.0486647 6.41077 0.128607 0.335283 -0.933298 135 156 161
2.10592 -0.0485425 6.37405 -0.0860905 0.296987 -0.950993 78 106 116
2.44375 -0.103299 6.43966 0.135541 0.286552 -0.948429 125 142 144
2.52038 -0.103672 6.4521 0.150016 0.271806 -0.950587 86 110 117
2.60533 -0.0792615 6.44714 -0.344331 -0.307186 -0.887172 79 109 119
2.61897 -0.112525 6.44561 -0.139887 0.154353 -0.978063 83 109 115
2.74331 -0.10508 6.46056 -0.0385367 0.123359 -0.991614 132 150 153
2.88893 -0.145683 6.42731 0.216568 -0.108668 -0.970201 94 112 116
2.93752 -0.0870296 6.46593 0.302444 0.0597369 -0.951294 82 105 113
2.96829 -0.149284 6.46554 0.300161 0.0715252 -0.951203 90 113 118
3.04028 -0.148763 6.48532 0.199558 0.121218 -0.972359 89 114 119
-5.30415 0.428702 5.91228 0.241259 -0.0815339 -0.96703 76 94 101
-5.24185 0.426593 5.94096 -0.082597 0.370652 -0.925092 122 133 137
-5.16548 0.433861 5.9369 -0.0100174 0.361379 -0.932365 125 134 134
-4.98991 0.419582 5.98186 0.240769 0.0780449 -0.96744 53 76 83
-4.95744 0.466058 6.03474 0.573248 -0.205855 -0.793102 79 97 103
-4.88283 0.422937 6.02011 0.653228 -0.0931397 -0.751411 90 103 107
-4.74567 0.396008 6.02846 -0.112112 -0.264543 -0.957835 165 145 132
-4.33599 0.427921 6.2287 -0.442101 0.313826 -0.840274 35 36 24
-4.29119 0.404224 6.16914 -0.498213 0.3117 -0.80909 39 40 29
-4.31674 0.403912 6.23288 -0.459102 0.240165 -0.855305 39 42 32
-4.21235 0.404127 6.15075 -0.231328 -0.117906 -0.965705 92 101 98
-4.18106 0.403761 6.24041 -0.466229 -0.128386 -0.875299 98 114 112
-4.02843 0.373431 5.94792 -0.456696 0.100529 -0.883925 63 81 82
-3.97287 0.375765 5.99936 -0.536601 0.278281 -0.79663 113 132 136
-3.83338 0.335759 5.84488 -0.560555 0.00476953 -0.828103 99 121 124
-3.75327 0.334063 5.73483 -0.490667 -0.0707294 -0.868472 125 144 147
-3.66546 0.351291 5.68721 0.221019 0.0458623 -0.97419 131 149 149
-3.54039 0.335716 5.73553 0.123116 0.461123 -0.878754 125 143 147
-3.4842 0.336203 5.76057 0.111063 -0.098063 -0.988963 144 161 165
-3.40914 0.332074 5.74062 -0.34539 0.327401 -0.879497 107 128 132
-3.32361 0.338457 5.7222 -0.296266 0.194004 -0.935195 145 164 167
-3.25229 0.339077 5.7017 -0.118113 0.225036 -0.967165 142 162 164
-3.19819 0.30054 5.798 -0.0287958 0.0815005 -0.996257 93 118 122
-3.1329 0.300525 5.79099 -0.0910652 0.087239 -0.992016 136 160 165
-3.06367 0.303124 5.77192 -0.0658795 -0.0980728 -0.992996 123 144 148
-3.06816 0.299833 5.77523 -0.0909351 -0.0886228 -0.991906 122 144 148
-3.06366 0.302051 5.77312 -0.0691627 -0.0833206 -0.99412 122 143 147
-3.00188 0.302166 5.77645 -0.028446 0.0100612 -0.999545 94 113 118
-3.00196 0.303184 5.77587 -0.0284262 0.014356 -0.999493 94 114 118
-2.93731 0.303066 5.76966 -0.114287 0.0361689 -0.992789 133 149 151
-2.87352 0.303068 5.76245 -0.118169 0.0939959 -0.988535 151 167 168
-2.83254 0.301494 5.75609 -0.154744 0.0132273 -0.987866 132 150 152
-2.76943 0.301422 5.75309 0.0294138 0.0624269 -0.997616 106 128 132
-2.70673 0.301528 5.7583 0.114876 0.0956452 -0.988765 144 166 169
-2.70821 0.30148 5.75883 0.113083 0.0982268 -0.988718 144 165 169
-2.6454 0.300155 5.75408 0.0242622 0.0807703 -0.996437 128 149 153
-2.6476 0.300191 5.75277 -0.00932065 0.0667687 -0.997725 130 151 155
-2.575 0.302276 5.73747 -0.00673565 0.0850581 -0.996353 99 118 121
-2.52629 0.298122 5.78161 0.402694 0.165375 -0.900271 127 144 143
-2.46649 0.298865 5.8008 0.450657 0.213397 -0.866816 126 140 140
-2.41307 0.297641 5.84133 0.317276 0.36883 -0.873671 97 114 115
-2.43383 0.243365 5.80935 0.416947 0.19344 -0.888108 127 142 142
-2.23184 0.270693 5.96493 -0.23843 -0.694439 -0.6789 71 95 98
-2.16773 0.270072 5.93459 -0.20549 -0.714363 -0.668924 107 125 124
-2.09765 0.231125 5.92312 -0.049679 -0.774727 -0.630341 120 133 132
-2.03565 0.231647 5.91209 -0.044734 -0.144951 -0.988427 129 144 145
-1.97606 0.231671 5.91401 -0.0831625 -0.766235 -0.637156 73 97 102
-1.91706 0.224555 5.91266 0.0512314 0.253824 -0.965893 84 111 119
-1.85684 0.224908 5.92064 -0.0607117 0.214673 -0.974797 79 103 110
-1.84858 0.22911 5.91971 -0.0281575 0.246864 -0.968641 81 104 110
-1.78835 0.229704 5.93731 -0.710144 0.341604 -0.615632 129 146 147
-1.73271 0.242319 5.99487 -0.0997466 0.300237 -0.948635 130 144 144
-1.66878 0.243796 6.01725 -0.278287 -0.096523 -0.955636 145 160 159
-1.67473 0.242548 6.01481 -0.24661 -0.0863549 -0.96526 146 160 159
-1.60784 0.243199 5.99991 -0.150815 0.0206657 -0.988346 92 112 114
-1.53248 0.20049 5.98266 -0.0775167 0.0475153 -0.995858 61 88 96
-1.55418 0.242304 6.00845 0.120304 0.0758615 -0.989834 78 101 107
-1.52324 0.189976 5.98258 -0.0929072 0.0159139 -0.995548 59 87 95
-1.4755 0.201871 5.99811 0.236742 0.287565 -0.928041 60 87 94
-1.49442 0.242377 6.01412 0.275857 0.0999418 -0.955989 86 109 115
-1.41201 0.202185 6.02545 -0.461918 0.604454 -0.649051 106 124 125
-1.26608 0.207005 6.09262 -0.527868 0.305863 -0.792341 126 140 141
-1.20137 0.206857 6.09035 -0.549987 0.260042 -0.793657 83 104 109
-1.15694 0.202555 6.07758 -0.781333 -0.250964 -0.571433 90 114 122
-1.09375 0.202774 6.05656 0.204213 0.246514 -0.94738 101 125 132
-1.03262 0.206264 6.06525 0.1069 0.356485 -0.928165 83 103 106
-0.95591 0.209253 6.14825 0.151973 0.247059 -0.957009 131 146 145
-0.886725 0.20714 6.15173 0.0235995 0.0339588 -0.999144 139 155 154
-0.855743 0.152823 6.13992 0.0179983 0.0419136 -0.998959 141 156 156
-0.824427 0.207121 6.14263 -0.196846 -0.0938603 -0.975931 101 120 122
-0.791209 0.151174 6.13934 -0.685993 0.123222 -0.717098 97 119 124
-0.792858 0.15291 6.13127 -0.551323 0.0329013 -0.833643 96 119 123
-0.728754 0.151129 6.13052 -0.108354 -0.0426572 -0.993197 86 114 122
-0.579715 0.13336 6.14412 0.091048 0.27868 -0.956058 139 157 158
-0.509245 0.136289 6.13912 0.142272 0.27459 -0.950978 108 125 124
-0.355181 0.125651 6.20294 0.489721 0.479242 -0.728355 79 104 107
-0.295822 0.156925 6.22787 0.434189 0.549798 -0.713584 116 138 143
-0.208145 0.142291 6.25294 0.600922 0.121192 -0.790066 89 111 114
-0.0685174 0.151484 6.23994 -0.0734233 0.0603303 -0.995474 138 155 156
-0.00281771 0.150793 6.24448 -0.113667 -0.0186918 -0.993343 101 122 125
0.0616987 0.147916 6.24771 -0.0435716 0.0237326 -0.998768 131 155 158
0.138722 0.129471 6.23826 0.0794724 0.0887233 -0.992881 117 143 148
0.203323 0.131421 6.24405 -0.0459007 0.084898 -0.995332 89 113 117
